//X Y Z Scalar_field
979
26.96866417 125.52964020 1.44144678 -1902.000000
26.98016548 125.53823853 1.44094896 -1922.000000
27.01537323 125.61337280 1.44049454 -1912.000000
26.96229935 125.58760071 1.43958139 -1918.000000
26.98111343 125.59687805 1.44004774 -1912.000000
26.93732071 125.51370239 1.44099522 -1919.000000
26.89422226 125.49893188 1.43958902 -1922.000000
26.91601563 125.50631714 1.44004726 -1913.000000
26.93573761 125.57569122 1.43912554 -1911.000000
26.94838142 125.57797241 1.44008255 -1915.000000
26.90667343 125.56616211 1.43818998 -1932.000000
26.92080498 125.56749725 1.43914175 -1929.000000
26.89469528 125.55706787 1.43868780 -1917.000000
26.98947525 125.72848511 1.43629932 -1925.000000
26.99402618 125.66510010 1.43864918 -1926.000000
27.01185226 125.67483521 1.43862915 -1912.000000
26.96024323 125.64909363 1.43820143 -1918.000000
26.97651482 125.66220856 1.43770123 -1916.000000
27.01111984 125.74172974 1.43627739 -1913.000000
27.00100517 125.73609924 1.43628836 -1930.000000
26.96437836 125.71661377 1.43584156 -1927.000000
26.97693634 125.72230530 1.43631411 -1927.000000
26.92501831 125.63208008 1.43775558 -1913.000000
26.94330597 125.64280701 1.43724680 -1912.000000
26.89839363 125.62261200 1.43632603 -1915.000000
26.91046143 125.62829590 1.43680000 -1916.000000
26.92958069 125.70204926 1.43539715 -1925.000000
26.94741821 125.71129608 1.43537712 -1913.000000
26.90306854 125.68818665 1.43493891 -1930.000000
26.91469955 125.69190216 1.43541098 -1907.000000
27.08220100 125.84756470 1.44947052 -1943.000000
27.07609367 125.85765839 1.45535469 -1961.000000
27.11316109 125.78193665 1.43907356 -1915.000000
27.12256241 125.77729034 1.44051504 -1916.000000
27.08786201 125.77787781 1.43716097 -1916.000000
27.07788849 125.76687622 1.43814182 -1909.000000
27.09766197 125.83573151 1.46016979 -2028.000000
27.08147430 125.83682251 1.43578672 -1926.000000
27.04410172 125.75086975 1.43769455 -1911.000000
27.05621910 125.77413177 1.44307423 -1948.000000
27.01496887 125.80142212 1.43537235 -1917.000000
27.04089546 125.80060577 1.44508982 -1977.000000
27.05250931 125.82337952 1.43533278 -1920.000000
27.04300880 125.81288147 1.43631315 -1920.000000
27.06706619 125.82717133 1.43580008 -1928.000000
27.01505852 125.81801605 1.44809008 -2000.000000
27.01234818 125.86582947 1.43350887 -1921.000000
27.13344574 125.77362823 1.46490479 -1977.000000
27.02017021 125.94366455 1.45312786 -1954.000000
27.05922890 125.88702393 1.45688963 -1993.000000
27.04407883 125.88568878 1.43298912 -1918.000000
27.05743599 125.87918854 1.43490934 -1936.000000
27.02337456 125.87393188 1.43301105 -1927.000000
27.03138351 125.92395020 1.43403864 -1944.000000
27.01303482 125.95568848 1.45852804 -1992.000000
27.02576256 125.93405914 1.43943310 -1869.000000
27.01594734 125.93528748 1.43115282 -1915.000000
26.98533630 125.85244751 1.43305206 -1932.000000
26.98403931 125.78842163 1.43492365 -1917.000000
26.99989700 125.79859924 1.43442011 -1921.000000
26.95932961 125.78047180 1.43398094 -1929.000000
26.97137070 125.78712463 1.43396759 -1924.000000
27.00716782 125.85885620 1.44132233 -1989.000000
26.95338058 125.84137726 1.43211889 -1938.000000
26.97177887 125.84770203 1.43258286 -1924.000000
26.91983795 125.75846100 1.43353605 -1924.000000
26.94628716 125.77476501 1.43350935 -1934.000000
26.93762589 125.76966095 1.43351841 -1927.000000
26.89894485 125.75402069 1.43259239 -1934.000000
26.94071198 125.84008026 1.43116474 -1921.000000
26.92971039 125.83100891 1.43166065 -1933.000000
26.91766739 125.82434845 1.43167400 -1931.000000
26.89587402 125.81695557 1.43072701 -1933.000000
26.90697861 125.82212067 1.43071318 -1924.000000
26.98734093 125.98438263 1.42882729 -1918.000000
26.95416260 125.90635681 1.42976236 -1937.000000
26.98424149 125.91445160 1.43167114 -1931.000000
26.99893570 125.93192291 1.43020248 -1926.000000
26.95220947 125.92584229 1.43467474 -1995.000000
26.97710037 125.98362732 1.42835712 -1935.000000
26.95358276 125.96740723 1.42886639 -1943.000000
26.96359634 125.97693634 1.42837286 -1932.000000
26.93959045 125.90306091 1.42929649 -1931.000000
26.92374611 125.89239502 1.42979908 -1939.000000
26.88550568 125.87872314 1.42838621 -1945.000000
26.91465759 125.88484192 1.42980576 -1928.000000
26.89854813 125.88442993 1.42837000 -1939.000000
26.92247391 125.96124268 1.42696238 -1940.000000
26.89002991 125.95015717 1.42603111 -1935.000000
26.90997124 125.95359802 1.42697525 -1935.000000
26.65039825 125.08096313 1.44143629 -1905.000000
26.88788986 125.05817413 1.45171499 -1895.000000
26.88848305 124.99664307 1.45358610 -1900.000000
26.85738373 125.04763031 1.45029211 -1899.000000
26.87236786 125.05387878 1.45076180 -1892.000000
26.84479141 125.04340363 1.44982147 -1889.000000
26.84756470 125.10697937 1.44794655 -1899.000000
26.86983490 125.11486816 1.44889259 -1909.000000
26.85781670 125.10723877 1.44890451 -1908.000000
26.82506561 125.03166962 1.44984198 -1889.000000
26.79072952 125.01809692 1.44890928 -1915.000000
26.81153297 125.02595520 1.44937086 -1889.000000
26.82152939 125.09361267 1.44797659 -1896.000000
26.83557320 125.09836578 1.44844580 -1906.000000
26.79397774 125.08216858 1.44703484 -1912.000000
26.78347588 125.07261658 1.44753075 -1905.000000
26.80847359 125.08839417 1.44750595 -1894.000000
26.87543106 125.24005127 1.44611835 -1895.000000
26.87259483 125.17892456 1.44750786 -1891.000000
26.88292694 125.11862183 1.44985056 -1893.000000
26.85232925 125.16912842 1.44704294 -1909.000000
26.89387512 125.18728638 1.44796801 -1901.000000
26.84455109 125.22510529 1.44517803 -1911.000000
26.86482811 125.23441315 1.44564104 -1898.000000
26.82054710 125.15122986 1.44658947 -1903.000000
26.83152390 125.16127014 1.44609499 -1910.000000
26.79298401 125.14026642 1.44564819 -1897.000000
26.77841568 125.13696289 1.44518280 -1910.000000
26.80498886 125.14839172 1.44563723 -1918.000000
26.83054352 125.21888733 1.44519567 -1922.000000
26.81843948 125.21467590 1.44472361 -1910.000000
26.78740883 125.20558167 1.44330359 -1900.000000
26.80348015 125.20745850 1.44425392 -1919.000000
26.76217079 125.06523895 1.44658279 -1918.000000
26.75786972 125.00407410 1.44797468 -1902.000000
26.77966309 125.01145935 1.44892073 -1902.000000
26.73178482 124.99266052 1.44703054 -1906.000000
26.74637985 124.99498749 1.44798374 -1909.000000
26.73033905 125.04928589 1.44613171 -1905.000000
26.74907684 125.06148529 1.44611359 -1906.000000
26.72776794 125.11174774 1.44426584 -1913.000000
26.69020844 125.03312683 1.44471836 -1897.000000
26.71326637 125.04836273 1.44469643 -1893.000000
26.70121193 125.04219818 1.44471025 -1905.000000
26.66790199 125.02669525 1.44377375 -1902.000000
26.69723892 125.10217285 1.44284391 -1905.000000
26.71173477 125.10840607 1.44331360 -1904.000000
26.66688347 125.08576965 1.44238853 -1898.000000
26.68472099 125.09501648 1.44285727 -1913.000000
26.75762939 125.18576813 1.44333172 -1911.000000
26.75763321 125.12813568 1.44423294 -1916.000000
26.74500465 125.12537384 1.44376278 -1906.000000
26.72384453 125.16976929 1.44288445 -1911.000000
26.77540398 125.19745636 1.44331455 -1906.000000
26.74457550 125.18055725 1.44334888 -1906.000000
26.71875763 125.23509216 1.44004965 -1924.000000
26.68368912 125.15458679 1.44147253 -1896.000000
26.69668198 125.16224670 1.44145870 -1909.000000
26.70876122 125.16743469 1.44193172 -1903.000000
26.66191864 125.14621735 1.44052410 -1915.000000
26.69224548 125.22123718 1.43959141 -1915.000000
26.70424843 125.22935486 1.43958044 -1918.000000
26.66092682 125.20431519 1.43962622 -1902.000000
26.68021774 125.21408844 1.44009209 -1915.000000
26.86927414 125.36640930 1.44190121 -1909.000000
26.88158417 125.30517578 1.44424009 -1893.000000
26.88886261 125.24967957 1.44561768 -1895.000000
26.86907959 125.29753113 1.44425249 -1900.000000
26.84055138 125.28605652 1.44331264 -1906.000000
26.85402107 125.29421997 1.44378662 -1905.000000
26.89609146 125.31092072 1.44470882 -1917.000000
26.83949661 125.34660339 1.44192934 -1909.000000
26.85877228 125.35685730 1.44190788 -1912.000000
26.81973648 125.27869415 1.44285297 -1906.000000
26.80617905 125.27395630 1.44238234 -1903.000000
26.78835487 125.26422119 1.44240189 -1908.000000
26.81677628 125.33723450 1.44147015 -1900.000000
26.80566025 125.33255005 1.44099665 -1909.000000
26.78589630 125.32228088 1.44101906 -1907.000000
26.87400818 125.48718262 1.43912125 -1916.000000
26.87746811 125.42816162 1.44099140 -1914.000000
26.89209366 125.37187195 1.44284391 -1907.000000
26.84221840 125.41212463 1.44005775 -1910.000000
26.86403656 125.41854095 1.44100332 -1911.000000
26.89251328 125.43196106 1.44145679 -1910.000000
26.84166336 125.47219086 1.43867302 -1907.000000
26.86241531 125.48199463 1.43913555 -1917.000000
26.82866287 125.40738678 1.43958759 -1913.000000
26.80991173 125.39567566 1.43960667 -1913.000000
26.78139687 125.38371277 1.43866634 -1914.000000
26.79537964 125.39090729 1.43913794 -1911.000000
26.81314850 125.46023560 1.43822098 -1920.000000
26.82560349 125.46982574 1.43772316 -1913.000000
26.77308083 125.44162750 1.43729258 -1929.000000
26.79333305 125.45191193 1.43726921 -1922.000000
26.75307465 125.30679321 1.44008160 -1915.000000
26.75613594 125.24434662 1.44243479 -1912.000000
26.76858902 125.25394440 1.44193649 -1923.000000
26.74065018 125.23858643 1.44147921 -1912.000000
26.72300720 125.29821777 1.43866014 -1913.000000
26.77291489 125.31413269 1.44103193 -1910.000000
26.73851776 125.30300140 1.43961477 -1921.000000
26.71425438 125.35416412 1.43728447 -1917.000000
26.73504448 125.36250305 1.43774700 -1924.000000
26.69073868 125.28029633 1.43869543 -1922.000000
26.71055222 125.28862000 1.43915796 -1913.000000
26.65785599 125.26725006 1.43776226 -1921.000000
26.67469025 125.27745056 1.43725538 -1913.000000
26.68924332 125.33887482 1.43730974 -1927.000000
26.70072174 125.34844971 1.43681383 -1926.000000
26.65638733 125.32484436 1.43686342 -1935.000000
26.67318344 125.33650970 1.43635988 -1923.000000
26.75332832 125.43087006 1.43682623 -1921.000000
26.74231339 125.42228699 1.43732309 -1923.000000
26.74906540 125.36824036 1.43821669 -1919.000000
26.76006699 125.37731171 1.43772078 -1919.000000
26.71999359 125.41634369 1.43637991 -1917.000000
26.71793556 125.47783661 1.43451166 -1927.000000
26.73723984 125.48712158 1.43497658 -1929.000000
26.68723679 125.39841461 1.43592834 -1923.000000
26.70446014 125.41252899 1.43542671 -1929.000000
26.65814590 125.38986206 1.43450499 -1938.000000
26.67116165 125.39653778 1.43497801 -1930.000000
26.68520355 125.45893097 1.43454647 -1935.000000
26.70549393 125.46775055 1.43500900 -1929.000000
26.65764046 125.44796753 1.43360567 -1935.000000
26.67412567 125.45278931 1.43455887 -1945.000000
26.63160896 125.07070923 1.44145679 -1905.000000
26.65537262 125.02002716 1.44378757 -1894.000000
26.63454437 125.01315308 1.44284105 -1903.000000
26.60656738 124.99925232 1.44238472 -1903.000000
26.62160110 125.00354004 1.44285202 -1907.000000
26.59650421 124.99166870 1.44239283 -1886.000000
26.60552216 125.05930328 1.44100142 -1901.000000
26.61758804 125.06497955 1.44098711 -1905.000000
26.59305573 125.05019379 1.44101238 -1902.000000
26.57429123 125.03897095 1.44103193 -1902.000000
26.54575348 125.02798462 1.44009256 -1916.000000
26.56069756 125.03569031 1.44007540 -1913.000000
26.53272247 125.02178955 1.43961954 -1896.000000
26.56921577 125.10380554 1.43819618 -1921.000000
26.58279800 125.10756683 1.43915272 -1914.000000
26.54167938 125.09187317 1.43774319 -1921.000000
26.55527306 125.09514618 1.43821049 -1917.000000
26.53115082 125.08329773 1.43775082 -1915.000000
26.62030792 125.18814087 1.43821430 -1921.000000
26.64832687 125.14294434 1.43956852 -1917.000000
26.63582230 125.13529205 1.43958092 -1908.000000
26.60154915 125.11927795 1.43913364 -1915.000000
26.61510468 125.12402344 1.43960428 -1905.000000
26.63237572 125.19381714 1.43868780 -1926.000000
26.64685822 125.20053864 1.43867016 -1917.000000
26.60004234 125.17834473 1.43775034 -1917.000000
26.55848694 125.16068268 1.43682575 -1923.000000
26.57876396 125.16999054 1.43728876 -1923.000000
26.54069710 125.14948273 1.43635511 -1925.000000
26.56946945 125.22787476 1.43542957 -1922.000000
26.58402634 125.23167419 1.43589687 -1921.000000
26.53668785 125.21092224 1.43497849 -1934.000000
26.55653954 125.21778107 1.43543959 -1919.000000
26.51343155 125.01202393 1.43915319 -1904.000000
26.50092697 125.00437927 1.43916607 -1904.000000
26.48063660 124.99555969 1.43870354 -1913.000000
26.50267410 125.06987762 1.43729591 -1905.000000
26.51620674 125.07559204 1.43776798 -1915.000000
26.47657394 125.05895233 1.43635321 -1917.000000
26.48917007 125.06317902 1.43731165 -1920.000000
26.44181442 125.04293060 1.43590736 -1921.000000
26.46228790 124.98727417 1.43823767 -1898.000000
26.40953445 125.02549744 1.43545485 -1915.000000
26.43122482 125.03679657 1.43591881 -1908.000000
26.44083405 125.10054016 1.43452024 -1924.000000
26.46356964 125.05178833 1.43636751 -1914.000000
26.41280746 125.08859253 1.43406630 -1927.000000
26.42580032 125.09625244 1.43405294 -1910.000000
26.52267838 125.20471191 1.43450832 -1934.000000
26.52573967 125.14226532 1.43637323 -1918.000000
26.50788879 125.13350677 1.43590641 -1934.000000
26.47940063 125.12057495 1.43545246 -1924.000000
26.49236679 125.12920380 1.43544006 -1924.000000
26.46884918 125.11297607 1.43546152 -1933.000000
26.50649643 125.18817902 1.43549204 -1925.000000
26.51065063 125.19756317 1.43452072 -1928.000000
26.47581482 125.18447113 1.43310165 -1933.000000
26.48893166 125.18724060 1.43405771 -1930.000000
26.44363213 125.16313171 1.43313217 -1943.000000
26.45335007 125.10769653 1.43499470 -1922.000000
26.41028595 125.14909363 1.43219757 -1937.000000
26.43061447 125.15645599 1.43314743 -1936.000000
26.44052315 125.22753143 1.43127012 -1946.000000
26.46384811 125.17488098 1.43359900 -1933.000000
26.45511818 125.22985840 1.43222237 -1941.000000
26.40723991 125.21105194 1.43081999 -1949.000000
26.42710495 125.21742249 1.43128109 -1937.000000
26.62109947 125.31027222 1.43544388 -1928.000000
26.63159943 125.31982422 1.43494892 -1923.000000
26.62609863 125.24836731 1.43730593 -1916.000000
26.64344788 125.25759888 1.43777561 -1925.000000
26.60281754 125.24191284 1.43636370 -1925.000000
26.61262894 125.24021149 1.43731976 -1919.000000
26.58976746 125.29384613 1.43499088 -1929.000000
26.60129738 125.30146790 1.43497992 -1926.000000
26.59154129 125.35836792 1.43360806 -1935.000000
26.56702423 125.28545380 1.43404436 -1925.000000
26.53221321 125.27138519 1.43311357 -1932.000000
26.54768372 125.27763367 1.43358183 -1931.000000
26.56393814 125.34887695 1.43218040 -1935.000000
26.57898712 125.35267639 1.43313503 -1941.000000
26.53749084 125.33257294 1.43220711 -1937.000000
26.55199814 125.33831787 1.43267775 -1953.000000
26.52442360 125.32784271 1.43173695 -1943.000000
26.59126854 125.48389435 1.42986774 -1956.000000
26.62582588 125.37389374 1.43405390 -1943.000000
26.64463997 125.38316345 1.43452072 -1930.000000
26.61391068 125.36235809 1.43454933 -1934.000000
26.58805656 125.41836548 1.43174028 -1956.000000
26.62287903 125.43194580 1.43315935 -1938.000000
26.64310837 125.44320679 1.43313742 -1930.000000
26.61131287 125.42578888 1.43268442 -1948.000000
26.55323410 125.40477753 1.43080902 -1956.000000
26.57501221 125.41265869 1.43126869 -1945.000000
26.53116608 125.38906860 1.43131781 -1958.000000
26.54369545 125.39573669 1.43130350 -1950.000000
26.55120087 125.46529388 1.42942810 -1965.000000
26.56668472 125.47106171 1.42989540 -1960.000000
26.52571487 125.44950104 1.42945385 -1972.000000
26.53960800 125.46011353 1.42895317 -1966.000000
26.57971573 125.47724915 1.43036795 -1957.000000
26.50215340 125.31994629 1.43079042 -1950.000000
26.52067184 125.26425171 1.43312502 -1934.000000
26.50714111 125.25852966 1.43265438 -1938.000000
26.47338104 125.24155426 1.43220425 -1947.000000
26.49314499 125.25183105 1.43267107 -1937.000000
26.47139931 125.30011749 1.43081999 -1952.000000
26.48339081 125.30873108 1.43080950 -1958.000000
26.44282150 125.29060364 1.42988348 -1961.000000
26.42506027 125.27842712 1.42990017 -1962.000000
26.40733528 125.26478577 1.43040276 -1973.000000
26.43132591 125.33914948 1.42948103 -1994.000000
26.44081497 125.35014343 1.42850113 -1983.000000
26.45485687 125.35489655 1.42896938 -1976.000000
26.40113449 125.31640625 1.42999363 -2008.000000
26.41012192 125.32786560 1.42901516 -1996.000000
26.45729256 125.29780579 1.43035507 -1964.000000
26.43458176 125.34606934 1.43631983 -2026.000000
26.39978600 125.29292297 1.43338346 -2012.000000
26.40197563 125.30274963 1.43192720 -2009.000000
26.41124725 125.34156799 1.43489170 -2034.000000
26.42152596 125.34085083 1.43584824 -2032.000000
26.40095901 125.34277344 1.43344688 -2035.000000
26.49442101 125.43161011 1.42899847 -1972.000000
26.51364136 125.38667297 1.42988110 -1956.000000
26.46991730 125.35820770 1.42992353 -1971.000000
26.48959351 125.37189484 1.42990541 -1963.000000
26.46105003 125.41854858 1.42806625 -2002.000000
26.50412750 125.37666321 1.43037367 -1967.000000
26.51466370 125.44238281 1.42946482 -1980.000000
26.47508240 125.42378998 1.42853546 -1994.000000
26.48648071 125.47487640 1.42955875 -2014.000000
26.50202942 125.47820282 1.43051100 -2005.000000
26.48271561 125.45035553 1.43295145 -2017.000000
26.46464157 125.45038605 1.43151951 -2026.000000
26.48684692 125.46072388 1.43198061 -2020.000000
26.43917084 125.39552307 1.42954063 -1976.000000
26.43787003 125.37008667 1.43292761 -2018.000000
26.44979095 125.36305237 1.44266176 -2035.000000
26.45376587 125.39785004 1.43049335 -2011.000000
26.44323540 125.44691467 1.43008900 -2031.000000
26.43122101 125.42022705 1.43300581 -2015.000000
26.44517708 125.42839813 1.43250179 -2032.000000
26.86989212 125.61016846 1.43587399 -1925.000000
26.87242508 125.54917145 1.43774223 -1921.000000
26.84492493 125.53577423 1.43728542 -1909.000000
26.85744286 125.54293060 1.43727207 -1916.000000
26.83282089 125.53155518 1.43681383 -1906.000000
26.84333038 125.59825134 1.43541765 -1928.000000
26.85783768 125.60399628 1.43588781 -1924.000000
26.82988739 125.58911896 1.43543053 -1921.000000
26.81105232 125.52319336 1.43586683 -1906.000000
26.77203751 125.50167847 1.43590927 -1938.000000
26.79858589 125.51408386 1.43636513 -1913.000000
26.78355408 125.50978851 1.43589926 -1926.000000
26.81057358 125.58032227 1.43545389 -1919.000000
26.79801750 125.57463074 1.43498135 -1910.000000
26.76897812 125.56412506 1.43404341 -1922.000000
26.78197098 125.57178497 1.43402958 -1912.000000
26.85698891 125.73292542 1.43215179 -1931.000000
26.86827087 125.67362213 1.43400621 -1919.000000
26.88338470 125.61734772 1.43585873 -1931.000000
26.88186646 125.67689514 1.43496275 -1928.000000
26.83701706 125.65426636 1.43452692 -1914.000000
26.85053444 125.66047668 1.43451071 -1928.000000
26.88022232 125.74133301 1.43309784 -1926.000000
26.83867645 125.72318268 1.43168449 -1932.000000
26.82352257 125.64708710 1.43405294 -1933.000000
26.80694962 125.64569092 1.43310547 -1930.000000
26.77465439 125.62874603 1.43265390 -1932.000000
26.79494476 125.63756561 1.43311644 -1927.000000
26.81838608 125.71436310 1.43171024 -1937.000000
26.80639458 125.70574951 1.43172073 -1935.000000
26.77219772 125.68681335 1.43127012 -1926.000000
26.79035950 125.70241547 1.43076849 -1932.000000
26.74092102 125.61079407 1.43220282 -1931.000000
26.75123215 125.49382782 1.43495989 -1929.000000
26.71442604 125.53880310 1.43313313 -1936.000000
26.73569489 125.54765320 1.43359423 -1938.000000
26.74970055 125.55386353 1.43357706 -1933.000000
26.71234512 125.60127258 1.43126678 -1942.000000
26.72743988 125.60311890 1.43221712 -1932.000000
26.68886566 125.52593994 1.43267536 -1928.000000
26.69995499 125.53160095 1.43266249 -1936.000000
26.65613365 125.50703430 1.43270969 -1941.000000
26.66808701 125.51711273 1.43221235 -1936.000000
26.67601776 125.58911133 1.42985153 -1940.000000
26.65052032 125.57381439 1.42987776 -1946.000000
26.70031357 125.59413147 1.43127918 -1940.000000
26.66613007 125.57469940 1.43082666 -1946.000000
26.73880959 125.73187256 1.42992496 -1944.000000
26.71556854 125.66632080 1.42939329 -1939.000000
26.73152733 125.67259216 1.42986012 -1938.000000
26.70204926 125.66011047 1.42940998 -1943.000000
26.76113510 125.62254333 1.43218136 -1928.000000
26.74453354 125.67975616 1.42984581 -1936.000000
26.70821381 125.72474670 1.42801905 -1948.000000
26.72856903 125.73112488 1.42896557 -1950.000000
26.75613594 125.68444824 1.43031931 -1944.000000
26.68378639 125.64841461 1.42942762 -1949.000000
26.67125702 125.64174652 1.42944193 -1952.000000
26.65101624 125.63097382 1.42897511 -1958.000000
26.64080048 125.62924957 1.42850399 -1960.000000
26.68175507 125.70893097 1.42804623 -1958.000000
26.69470978 125.71805573 1.42803478 -1952.000000
26.65317535 125.69941711 1.42710876 -1962.000000
26.66773415 125.70320129 1.42757511 -1961.000000
26.64013290 125.69371033 1.42663670 -1965.000000
26.85956955 125.86145782 1.42841053 -1942.000000
26.82228088 125.84878540 1.42748499 -1950.000000
26.83414078 125.78607941 1.42982244 -1930.000000
26.86933899 125.80406952 1.43027020 -1938.000000
26.85443115 125.79489899 1.43028545 -1927.000000
26.84647560 125.85770416 1.42794180 -1934.000000
26.88190460 125.80927277 1.43074226 -1930.000000
26.81755447 125.78517151 1.42887449 -1938.000000
26.80135727 125.76912689 1.42937231 -1938.000000
26.76851273 125.75461578 1.42892361 -1935.000000
26.79031754 125.76152039 1.42987013 -1950.000000
26.80247879 125.83998108 1.42702150 -1950.000000
26.81267929 125.84219360 1.42749357 -1943.000000
26.77074623 125.82012177 1.42705345 -1945.000000
26.78411484 125.83218384 1.42655659 -1945.000000
26.85235023 125.99121094 1.42468834 -1941.000000
26.86471367 125.87038422 1.42792511 -1937.000000
26.87735558 125.87265778 1.42839289 -1932.000000
26.82368851 125.90841675 1.42658472 -1949.000000
26.84824753 125.92222595 1.42655802 -1944.000000
26.83663177 125.91802979 1.42608595 -1944.000000
26.86116409 125.93281555 1.42606068 -1938.000000
26.88196945 125.94067383 1.42652082 -1938.000000
26.83205795 125.98238373 1.42373753 -1942.000000
26.79983139 125.90536499 1.42467117 -1954.000000
26.81059647 125.90466309 1.42611599 -1949.000000
26.77388382 125.88858795 1.42518473 -1958.000000
26.75933838 125.88430786 1.42422867 -1960.000000
26.78881454 125.89678192 1.42516804 -1957.000000
26.79624557 125.96926880 1.42280960 -1958.000000
26.81861496 125.97325134 1.42423773 -1952.000000
26.76970863 125.95637512 1.42235184 -1956.000000
26.75872040 125.94681549 1.42284870 -1963.000000
26.78518105 125.96263123 1.42282104 -1955.000000
26.73686218 125.80802917 1.42612314 -1951.000000
26.75452805 125.74742126 1.42845201 -1944.000000
26.70943642 125.79170227 1.42615175 -1960.000000
26.72339249 125.79987335 1.42613697 -1949.000000
26.74769020 125.80488586 1.42756319 -1948.000000
26.75661469 125.81878662 1.42610121 -1952.000000
26.70828056 125.85614777 1.42428446 -1966.000000
26.68117332 125.76997375 1.42666245 -1966.000000
26.68963432 125.78289032 1.42568684 -1963.000000
26.64960480 125.76282501 1.42524576 -1971.000000
26.63713646 125.75371552 1.42525625 -1966.000000
26.66460037 125.76857758 1.42571354 -1966.000000
26.67982864 125.84174347 1.42383003 -1963.000000
26.66683578 125.83409119 1.42384386 -1982.000000
26.69327164 125.85087585 1.42381763 -1968.000000
26.64595795 125.82916260 1.42289925 -1982.000000
26.72768784 125.93772888 1.42142773 -1970.000000
26.73908615 125.87402344 1.42425203 -1952.000000
26.72750854 125.86836243 1.42426538 -1964.000000
26.71049118 125.92263031 1.42241526 -1967.000000
26.69637108 125.92080688 1.42146254 -1975.000000
26.74324799 125.94055939 1.42237949 -1956.000000
26.70690536 125.98652649 1.42055368 -1976.000000
26.69577789 125.98233795 1.42008018 -1980.000000
26.67765808 125.90763092 1.42147970 -1983.000000
26.63722610 125.88413239 1.42152214 -1996.000000
26.66045952 125.89253998 1.42246723 -1980.000000
26.65023232 125.89130402 1.42150784 -1991.000000
26.66214752 125.90283966 1.42101383 -1980.000000
26.66726303 125.97037506 1.41962862 -1992.000000
26.67935562 125.97508240 1.41961241 -1986.000000
26.64539719 125.94686127 1.42110205 -2003.000000
26.63459396 125.94903564 1.41966009 -2003.000000
26.66161728 125.96192932 1.42011547 -2000.000000
26.58871651 125.60301208 1.42758703 -1970.000000
26.59167671 125.54447937 1.42896938 -1960.000000
26.62605476 125.49894714 1.43128920 -1948.000000
26.64151382 125.50569153 1.43127012 -1954.000000
26.61454964 125.49034882 1.43080950 -1953.000000
26.60470581 125.55066681 1.42944336 -1955.000000
26.61498642 125.54994965 1.43039942 -1962.000000
26.64003181 125.56377411 1.43037224 -1952.000000
26.55218506 125.52246857 1.42901278 -1971.000000
26.57770920 125.53678894 1.42898512 -1962.000000
26.56119537 125.53295135 1.42803431 -1968.000000
26.53045273 125.51263428 1.42806387 -1986.000000
26.54120636 125.51242065 1.42901945 -1975.000000
26.56260490 125.59258270 1.42664480 -1980.000000
26.57615089 125.59780884 1.42760324 -1969.000000
26.52893448 125.57218933 1.42716789 -1997.000000
26.54141235 125.58081055 1.42666817 -1990.000000
26.62042999 125.68099976 1.42665577 -1970.000000
26.62196350 125.62095642 1.42803955 -1958.000000
26.63224030 125.62023926 1.42899513 -1964.000000
26.61148643 125.61042786 1.42853260 -1964.000000
26.58668518 125.66352844 1.42620659 -1975.000000
26.60694885 125.67332458 1.42667055 -1972.000000
26.57789230 125.72094727 1.42483282 -1995.000000
26.59964752 125.72979736 1.42529345 -1995.000000
26.54810715 125.64398956 1.42576218 -1998.000000
26.55124855 125.65481567 1.42479467 -1996.000000
26.57110023 125.66166687 1.42525578 -1987.000000
26.52364731 125.62626648 1.42627239 -2016.000000
26.54396439 125.63410950 1.42673349 -2001.000000
26.52204323 125.67018890 1.42730951 -2030.000000
26.52535248 125.63655853 1.43262959 -2035.000000
26.52641296 125.65222168 1.43069601 -2032.000000
26.55487442 125.70423889 1.42534113 -2007.000000
26.54701614 125.68694305 1.42728615 -2018.000000
26.55924225 125.72486115 1.43024349 -2027.000000
26.56533813 125.71525574 1.42435980 -2007.000000
26.54054451 125.67260742 1.42874384 -2029.000000
26.53261948 125.69586182 1.42488241 -2024.000000
26.55080795 125.71096802 1.43170595 -2033.000000
26.54143143 125.69558716 1.43316746 -2035.000000
26.49737930 125.58407593 1.43017054 -2030.000000
26.49399948 125.54394531 1.42817116 -2021.000000
26.50847626 125.49351501 1.42905426 -1992.000000
26.51259232 125.50436401 1.42808533 -1992.000000
26.48713303 125.48759460 1.42810965 -2007.000000
26.46532059 125.53833008 1.42626333 -2032.000000
26.47789001 125.54353333 1.42673492 -2026.000000
26.47237396 125.51115417 1.43109655 -2034.000000
26.47859573 125.51667023 1.43841743 -2038.000000
26.49412537 125.55811310 1.42623663 -2015.000000
26.51469040 125.55619049 1.42814970 -2007.000000
26.51435089 125.56937408 1.42621469 -2001.000000
26.51313782 125.59815216 1.42967272 -2023.000000
26.45693398 125.56106567 1.42972660 -2030.000000
26.47513199 125.57521057 1.42922258 -2034.000000
26.48610306 125.54763794 1.43453741 -2035.000000
26.49734116 125.56649017 1.43258858 -2034.000000
26.48698807 125.57013702 1.43114758 -2035.000000
26.51346397 125.58546448 1.43160868 -2027.000000
26.50512314 125.62482452 1.42483902 -2020.000000
26.51073074 125.61615753 1.43409491 -2040.000000
26.50981903 125.63275146 1.43216515 -2030.000000
26.61328697 125.80781555 1.42293072 -1990.000000
26.61579514 125.74780273 1.42431068 -1982.000000
26.58443451 125.77093506 1.42586327 -2013.000000
26.60378647 125.79731750 1.42391014 -1999.000000
26.59437561 125.78340149 1.42488527 -2007.000000
26.58452225 125.78656769 1.42344284 -2010.000000
26.62781906 125.81257629 1.42339849 -1971.000000
26.58458328 125.84176636 1.42351580 -2021.000000
26.60129166 125.85684204 1.42252779 -2007.000000
26.58675766 125.85208130 1.42206049 -2016.000000
26.55260277 125.79356384 1.42741632 -2035.000000
26.56616402 125.74066925 1.42878675 -2026.000000
26.55918884 125.76491547 1.42443609 -2026.000000
26.56431961 125.77433014 1.42346382 -2021.000000
26.57209015 125.83363342 1.42352772 -2025.000000
26.54149628 125.82649994 1.42162085 -2036.000000
26.56990051 125.82380676 1.42449427 -2025.000000
26.55944824 125.81230164 1.42547512 -2033.000000
26.52655029 125.81879425 1.42163801 -2035.000000
26.61301231 125.97192383 1.42217016 -2030.000000
26.60575867 125.91213989 1.43040514 -2038.000000
26.61365700 125.86985779 1.42154646 -2002.000000
26.62513542 125.87943268 1.42153835 -1997.000000
26.60295486 125.88764954 1.42598295 -2024.000000
26.57868385 125.88166046 1.42504311 -2032.000000
26.58348846 125.90377045 1.42213440 -2025.000000
26.59953690 125.90661621 1.42308617 -2022.000000
26.58037186 125.89196777 1.42358923 -2027.000000
26.60288811 125.92819977 1.42017794 -2017.000000
26.62369156 125.93605042 1.42063856 -2011.000000
26.60610580 125.93657684 1.42701864 -2035.000000
26.60715485 125.95272064 1.42459631 -2032.000000
26.62907219 125.97428894 1.42312098 -2025.000000
26.54175377 125.91246796 1.42466259 -2036.000000
26.55552292 125.88938141 1.42167807 -2036.000000
26.56786728 125.88432312 1.42360210 -2033.000000
26.52376938 125.87097931 1.42903566 -2036.000000
26.53061295 125.88923645 1.41928148 -2035.000000
26.53135109 125.91806793 1.42322540 -2038.000000
26.52285385 125.88804626 1.43443108 -2035.000000
26.50845909 125.89695740 1.43202782 -2035.000000
26.53981209 125.93098450 1.42224979 -2038.000000
26.56820297 125.92877197 1.42463589 -2038.000000
26.50881577 125.93948364 1.41792345 -2030.000000
26.50240898 125.92270660 1.41986609 -2035.000000
26.49694824 125.94504547 1.41599846 -2016.000000
26.50372314 125.94813538 1.42429161 -2038.000000
26.59178734 126.59271240 1.40105343 -1988.000000
26.94952011 126.03079987 1.42651653 -1941.000000
26.96637154 126.02145386 1.42940378 -1949.000000
26.95518112 126.04019165 1.44897938 -1923.000000
26.94906044 126.05077362 1.45437574 -1967.000000
26.96128845 126.02961731 1.43577099 -1885.000000
26.93445015 126.02797699 1.42605257 -1930.000000
26.89539719 126.00793457 1.42560816 -1936.000000
26.88136292 126.00268555 1.42513895 -1933.000000
26.91987610 126.08230591 1.42419672 -1940.000000
26.90430260 126.07996368 1.42324638 -1946.000000
26.90301132 126.11167145 1.42621994 -1892.000000
26.92613602 126.10637665 1.44472456 -2036.000000
26.88446045 126.13025665 1.42237139 -1929.000000
26.89282608 126.12945557 1.44628143 -1873.000000
26.88261032 126.14726257 1.45071840 -1976.000000
26.89790535 126.12081909 1.43258810 -1842.000000
26.62252235 126.00099182 1.41877317 -2022.000000
26.85838890 126.06072235 1.42232752 -1951.000000
26.86499214 125.99347687 1.42515659 -1942.000000
26.83180237 126.04978943 1.42187405 -1943.000000
26.84393311 126.05302429 1.42234373 -1953.000000
26.82271576 126.04222870 1.42236805 -1958.000000
26.82875443 126.11174011 1.42000771 -1954.000000
26.79507637 126.03419495 1.42094421 -1958.000000
26.81119919 126.03411865 1.42237854 -1951.000000
26.76815224 126.01739502 1.42097139 -1969.000000
26.78592682 126.02908325 1.42095423 -1961.000000
26.79256821 126.09421539 1.42005062 -1967.000000
26.80471039 126.09696960 1.42052078 -1954.000000
26.81379700 126.10452271 1.42002583 -1963.000000
26.75497818 126.07421112 1.41960526 -1965.000000
26.76545715 126.08473206 1.41911077 -1963.000000
26.78005219 126.08705902 1.42006397 -1970.000000
26.85329819 126.18368530 1.41956997 -1944.000000
26.86836052 126.12935638 1.42093611 -1948.000000
26.83871460 126.18087006 1.41861582 -1953.000000
26.81948471 126.22628784 1.41822243 -1966.000000
26.83846283 126.21016693 1.42207289 -1928.000000
26.83440971 126.21640015 1.42892408 -1808.000000
26.83966827 126.22189331 1.44405890 -2028.000000
26.82830238 126.22697449 1.44213343 -1945.000000
26.79143715 126.15768433 1.41818333 -1968.000000
26.80190277 126.16870117 1.41720152 -1961.000000
26.75561523 126.14505005 1.41725492 -1974.000000
26.77253723 126.15183258 1.41772223 -1969.000000
26.81009674 126.23045349 1.41678047 -1966.000000
26.75454330 126.20608521 1.41587257 -1983.000000
26.78100586 126.22189331 1.41584492 -1998.000000
26.77001572 126.21233368 1.41585255 -1979.000000
26.73431396 126.06098175 1.41962528 -1979.000000
26.73188972 126.00279236 1.42004108 -1967.000000
26.75504684 126.01412964 1.42050219 -1969.000000
26.72077560 125.99811554 1.42005539 -1965.000000
26.70304489 126.04211426 1.41965771 -1986.000000
26.73647690 126.07178497 1.41817045 -1976.000000
26.71715164 126.06347656 1.41819477 -1976.000000
26.69058609 126.10920715 1.41683865 -1998.000000
26.67102432 126.03348541 1.41823912 -1998.000000
26.68607140 126.03728485 1.41919279 -1994.000000
26.64123535 126.01416779 1.41875648 -2017.000000
26.63714600 126.00281525 1.42802525 -2033.000000
26.63324738 126.04032898 1.42173529 -2032.000000
26.65590668 126.03261566 1.41728878 -2009.000000
26.65280151 126.02032471 1.41874361 -2008.000000
26.67393875 126.09169006 1.41782284 -2012.000000
26.66424942 126.10803986 1.42225599 -2028.000000
26.63343430 126.07111359 1.41738033 -2030.000000
26.64519119 126.05137634 1.42905188 -2038.000000
26.64397430 126.07968140 1.42469645 -2035.000000
26.65124512 126.08133698 1.41736126 -2020.000000
26.64615250 126.08999634 1.42373037 -2035.000000
26.65135574 126.09599304 1.41542768 -2017.000000
26.64675140 126.10466003 1.42130756 -2031.000000
26.63657379 126.08193970 1.41641331 -2028.000000
26.72904587 126.19078064 1.41589880 -1991.000000
26.73179245 126.12149048 1.41824436 -1985.000000
26.74044228 126.12708282 1.41823578 -1981.000000
26.70111275 126.11777496 1.41634274 -1995.000000
26.71660995 126.12305450 1.41680908 -1987.000000
26.69983292 126.16805267 1.41689920 -2007.000000
26.74351692 126.19798279 1.41588211 -1990.000000
26.68837738 126.19609070 1.41939783 -2027.000000
26.69857979 126.17877197 1.41496229 -2006.000000
26.71456528 126.18405914 1.41542864 -2004.000000
26.69140625 126.21131134 1.41745949 -2023.000000
26.70249557 126.23601532 1.41503048 -2015.000000
26.69056702 126.22544861 1.42333984 -2035.000000
26.67028046 126.15850830 1.41547585 -2020.000000
26.67117119 126.12384796 1.42079973 -2027.000000
26.67683029 126.13228607 1.42812347 -2035.000000
26.68286896 126.16273499 1.41594601 -2015.000000
26.67880440 126.16946411 1.42231035 -2035.000000
26.66793823 126.17407227 1.42087173 -2035.000000
26.65084267 126.11649323 1.41985083 -2030.000000
26.68341064 126.18032837 1.42134047 -2030.000000
26.68647003 126.23219299 1.41407776 -2022.000000
26.82012939 126.24140930 1.44704914 -1990.000000
26.83813858 126.24334717 1.44067144 -2038.000000
26.78879929 126.28022003 1.41590738 -1969.000000
26.75750732 126.26232910 1.41545343 -2010.000000
26.77625656 126.27404022 1.41543436 -1983.000000
26.75815392 126.33316040 1.42091656 -1918.000000
26.75408745 126.33988953 1.42776823 -1931.000000
26.74979019 126.33491516 1.41214514 -1997.000000
26.74745369 126.35143280 1.43316650 -1946.000000
26.72569275 126.36067200 1.41417551 -2023.000000
26.72144508 126.23991394 1.41597748 -2009.000000
26.74649239 126.25373840 1.41594982 -1998.000000
26.73473740 126.25491333 1.41450882 -2001.000000
26.70878983 126.25765991 1.41993093 -2030.000000
26.69117928 126.23962402 1.42140436 -2035.000000
26.69450760 126.26218414 1.41849756 -2030.000000
26.70957565 126.28406525 1.41654634 -2025.000000
26.70254326 126.27264404 1.41751957 -2026.000000
26.71522522 126.27394104 1.42628717 -2036.000000
26.73400879 126.30275726 1.41554928 -2022.000000
26.71658325 126.31550598 1.41217995 -2012.000000
26.69745636 126.31892395 1.41807938 -2034.000000
26.70510483 126.30593109 1.41267633 -2020.000000
26.69562531 126.35209656 1.41324329 -2030.000000
26.69284439 126.46238708 1.42852926 -2038.000000
26.74498558 126.37139893 1.43026829 -2026.000000
26.71860504 126.38931274 1.40983200 -2008.000000
26.73877907 126.36634827 1.43808508 -1945.000000
26.71526718 126.40726471 1.43818188 -2010.000000
26.71328735 126.42676544 1.42746878 -2028.000000
26.67366409 126.46679688 1.41831732 -1925.000000
26.68122482 126.43769836 1.40752220 -2031.000000
26.68078423 126.45478821 1.40510464 -2008.000000
26.66450500 126.48265839 1.43886137 -1977.000000
26.66909790 126.47447968 1.43249559 -1894.000000
26.62468719 126.01179504 1.41780758 -2020.000000
26.58413887 126.60569763 1.40645647 -1928.000000
26.61612701 126.57863617 1.42882204 -2029.000000
26.64186287 126.50606537 1.40182495 -2024.000000
26.63180542 126.53897095 1.43606663 -2034.000000
26.57496643 126.62155914 1.41967726 -1989.000000
26.60200119 126.57490540 1.39661741 -1991.000000
26.56986046 126.63070679 1.42555714 -1992.000000
26.45805168 126.83935547 1.41871214 -2036.000000
26.36926651 126.94849396 1.39606905 -1833.000000
27.80849648 127.62841034 1.40849972 -2026.000000
27.83771515 127.59350586 1.40791225 -2009.000000
28.04999352 127.14219666 1.42646170 -1932.000000
28.32644653 127.10477448 1.43664980 -1920.000000
28.33784103 127.04107666 1.43947554 -1912.000000
28.35276031 127.04975891 1.43897152 -1911.000000
28.31604767 127.03367615 1.43852854 -1907.000000
28.33902359 127.10948944 1.43663311 -1917.000000
28.30361366 127.09979248 1.43570900 -1911.000000
28.27264786 127.08826447 1.43526220 -1916.000000
28.23299408 127.07260132 1.43482542 -1907.000000
28.25864029 127.08204651 1.43527985 -1920.000000
28.24361992 127.07726288 1.43481207 -1918.000000
28.26809692 127.15164185 1.43340015 -1915.000000
28.28717804 127.09303284 1.43524218 -1914.000000
28.28372002 127.15203857 1.43434906 -1923.000000
28.23234940 127.13607788 1.43295670 -1920.000000
28.25510406 127.14398956 1.43341351 -1899.000000
28.24202347 127.13974762 1.43294430 -1912.000000
28.32896423 127.23574066 1.43291187 -1906.000000
28.32775497 127.16830444 1.43477869 -1908.000000
28.34855652 127.17616272 1.43523979 -1910.000000
28.30068016 127.15735626 1.43481350 -1926.000000
28.31220818 127.16497803 1.43431425 -1910.000000
28.34299469 127.24098206 1.43289328 -1916.000000
28.29940987 127.22619629 1.43197727 -1914.000000
28.31540680 127.23100281 1.43244219 -1917.000000
28.26208496 127.21499634 1.43105364 -1909.000000
28.23563576 127.19868469 1.43156815 -1908.000000
28.25101852 127.20835876 1.43106508 -1917.000000
28.25804901 127.27741241 1.42919016 -1907.000000
28.23680878 127.26759338 1.42921591 -1922.000000
28.22524261 127.26143646 1.42922878 -1923.000000
28.28589249 127.21999359 1.43199348 -1919.000000
28.20569992 127.12759399 1.43201828 -1926.000000
28.20979881 127.06272888 1.43436623 -1917.000000
28.18120956 127.05369568 1.43391895 -1925.000000
28.19723129 127.05752563 1.43438244 -1936.000000
28.21578789 127.13420105 1.43200874 -1906.000000
28.17470551 127.11703491 1.43157148 -1921.000000
28.19543457 127.12781525 1.43154812 -1926.000000
28.14390755 127.04151917 1.43250561 -1925.000000
28.16523743 127.04792023 1.43345118 -1922.000000
28.11682129 127.03105927 1.43254089 -1917.000000
28.12891388 127.03575897 1.43252516 -1923.000000
28.10611916 127.02931976 1.43207026 -1930.000000
28.14567947 127.10603333 1.43112230 -1923.000000
28.15764618 127.11562347 1.43062544 -1928.000000
28.11560249 127.09794617 1.43018961 -1931.000000
28.13216400 127.09983063 1.43113899 -1934.000000
28.20675278 127.25852203 1.42828178 -1919.000000
28.16967010 127.18040466 1.42922354 -1929.000000
28.20503235 127.19204712 1.43063974 -1919.000000
28.21469498 127.19620514 1.43062735 -1919.000000
28.18899727 127.18871307 1.42968750 -1920.000000
28.16219330 127.24371338 1.42785549 -1918.000000
28.19070816 127.25567627 1.42781925 -1925.000000
28.17772675 127.24752808 1.42783213 -1919.000000
28.14109421 127.17088318 1.42877531 -1924.000000
28.15416336 127.17561340 1.42924547 -1927.000000
28.10857391 127.16273499 1.42784643 -1933.000000
28.12660980 127.16416931 1.42879248 -1922.000000
28.14029884 127.24022675 1.42642593 -1921.000000
28.10306168 127.22560120 1.42598629 -1939.000000
28.12787056 127.22965240 1.42692232 -1936.000000
28.11327553 127.22732544 1.42645836 -1928.000000
28.32564926 127.36558533 1.42869520 -1916.000000
28.33162308 127.30371094 1.43055582 -1902.000000
28.29442215 127.28762054 1.43011332 -1915.000000
28.30993271 127.29240417 1.43058062 -1922.000000
28.29657173 127.35654449 1.42824697 -1915.000000
28.31114197 127.35984802 1.42871380 -1911.000000
28.34073257 127.36792755 1.42964649 -1916.000000
28.23124313 127.33241272 1.42686939 -1913.000000
28.24525070 127.33863068 1.42734146 -1911.000000
28.27987862 127.28334045 1.43013382 -1925.000000
28.26552963 127.34793854 1.42731667 -1920.000000
28.28053665 127.35321045 1.42729616 -1915.000000
28.23394394 127.39891815 1.42499876 -1916.000000
28.34132767 127.44023132 1.42681074 -1914.000000
28.32839584 127.43013763 1.42730999 -1919.000000
28.28432465 127.41533661 1.42639399 -1919.000000
28.31183624 127.42825317 1.42636061 -1922.000000
28.29726791 127.42494965 1.42589474 -1921.000000
28.33726501 127.50363159 1.42494822 -1917.000000
28.32234573 127.49494934 1.42496395 -1918.000000
28.29428101 127.48446655 1.42451382 -1920.000000
28.30875206 127.49166870 1.42449665 -1910.000000
28.26100349 127.41035461 1.42545366 -1912.000000
28.24748611 127.40414429 1.42547035 -1919.000000
28.22946930 127.45936584 1.42362165 -1913.000000
28.26420593 127.47637177 1.42358065 -1922.000000
28.27976227 127.47920990 1.42453337 -1912.000000
28.24241257 127.46897888 1.42312336 -1910.000000
28.19816971 127.38432312 1.42455721 -1922.000000
28.19917488 127.32573700 1.42594290 -1918.000000
28.21766281 127.32865143 1.42640114 -1928.000000
28.17212486 127.31381226 1.42548895 -1926.000000
28.18663216 127.31955719 1.42546988 -1923.000000
28.21741867 127.39556122 1.42453671 -1924.000000
28.17009354 127.37433624 1.42410707 -1916.000000
28.18112183 127.38243103 1.42409754 -1924.000000
28.15985489 127.37358093 1.42363596 -1929.000000
28.15954590 127.30909729 1.42550564 -1928.000000
28.14304924 127.30477142 1.42504072 -1939.000000
28.13256073 127.29473877 1.42553568 -1931.000000
28.10577393 127.29161072 1.42411518 -1929.000000
28.13607025 127.36760712 1.42269564 -1929.000000
28.10551834 127.35901642 1.42225218 -1938.000000
28.12309265 127.35945892 1.42319679 -1929.000000
28.20108795 127.51873016 1.42082310 -1931.000000
28.19890213 127.45126343 1.42269135 -1916.000000
28.21292114 127.45699310 1.42316151 -1931.000000
28.16352844 127.44010925 1.42176390 -1918.000000
28.18388367 127.44648743 1.42271233 -1930.000000
28.21508217 127.52543640 1.42080641 -1924.000000
28.16378784 127.50654602 1.41989851 -1931.000000
28.18455124 127.51586151 1.42036152 -1931.000000
28.15327835 127.43984985 1.42129469 -1921.000000
28.13302612 127.42956543 1.42131805 -1933.000000
28.09681320 127.41300964 1.42136240 -1938.000000
28.11954498 127.42189026 1.42133236 -1935.000000
28.10646439 127.41764832 1.42135096 -1938.000000
28.13722610 127.49463654 1.41993141 -1931.000000
28.12699890 127.49339294 1.41945982 -1934.000000
28.14770126 127.50515747 1.41895008 -1937.000000
28.10570908 127.48552704 1.41900063 -1934.000000
28.11595917 127.48578644 1.41946983 -1942.000000
28.06793213 127.14753723 1.42692375 -1930.000000
28.05316544 127.07534790 1.42880964 -1937.000000
28.07935333 127.08285522 1.42974806 -1936.000000
28.06681061 127.07667542 1.42976284 -1932.000000
28.10161972 127.09075165 1.43020535 -1931.000000
28.08798981 127.08894348 1.42973995 -1934.000000
28.02421379 127.06142426 1.42884398 -1944.000000
28.03669357 127.07005310 1.42834330 -1939.000000
28.00493813 127.05117035 1.42886591 -1942.000000
27.98584747 127.05263519 1.42743778 -1947.000000
28.01717377 127.12670135 1.42650080 -1942.000000
28.03224564 127.12953186 1.42696524 -1938.000000
27.98764610 127.11618042 1.42605257 -1950.000000
28.00016403 127.12333679 1.42555141 -1942.000000
28.08230782 127.21578979 1.42601109 -1935.000000
28.08252716 127.14985657 1.42787743 -1927.000000
28.09599495 127.15801239 1.42786360 -1930.000000
28.04446793 127.20555115 1.42460203 -1938.000000
28.06048965 127.20938110 1.42506552 -1943.000000
28.04873276 127.26818085 1.42321253 -1941.000000
28.00965881 127.19147491 1.42415857 -1939.000000
28.02475357 127.19332886 1.42510986 -1943.000000
28.03546906 127.19458008 1.42558098 -1936.000000
27.98938179 127.18216705 1.42418337 -1944.000000
28.00612259 127.25341797 1.42229462 -1941.000000
28.01821518 127.25812531 1.42276621 -1934.000000
28.03319931 127.26436615 1.42274714 -1934.000000
27.97509384 127.24433136 1.42136192 -1950.000000
27.99797630 127.24735260 1.42278910 -1950.000000
27.95856857 127.10713959 1.42511702 -1951.000000
27.95983887 127.03829956 1.42746639 -1948.000000
27.97087860 127.04590607 1.42696667 -1952.000000
27.92644310 127.02621460 1.42702198 -1956.000000
27.93650436 127.03379822 1.42652559 -1956.000000
27.97407722 127.11193085 1.42558384 -1945.000000
27.92275810 127.09401703 1.42418861 -1956.000000
27.93881607 127.09637451 1.42513847 -1953.000000
27.89970207 127.07877350 1.42518663 -1969.000000
27.91478920 127.02347565 1.42655182 -1958.000000
27.88854790 127.07556152 1.42471504 -1969.000000
27.86152458 127.06266022 1.42425919 -1974.000000
27.87197495 127.07416534 1.42376661 -1971.000000
27.88352585 127.13844299 1.42285442 -1969.000000
27.90872574 127.08877563 1.42420721 -1963.000000
27.85343170 127.13084412 1.42143440 -1975.000000
27.87193489 127.13326263 1.42286873 -1977.000000
27.95459557 127.16711426 1.42373800 -1953.000000
27.97441101 127.17543793 1.42420197 -1946.000000
27.92873383 127.16596985 1.42183113 -1949.000000
27.94052696 127.16333771 1.42327166 -1961.000000
27.95586777 127.23211670 1.42186880 -1952.000000
27.92003250 127.21997070 1.42143059 -1960.000000
27.93875504 127.23265839 1.42043686 -1955.000000
27.89446259 127.14996338 1.42187262 -1962.000000
27.90950966 127.15376282 1.42233944 -1952.000000
27.86401749 127.19461060 1.42101097 -1980.000000
27.88855934 127.26654816 1.42008448 -1965.000000
27.89517212 127.21787262 1.41951990 -1863.000000
27.88447952 127.25423431 1.42154026 -1945.000000
27.88067627 127.21163940 1.41953802 -1962.000000
27.86382484 127.25956726 1.41914415 -1971.000000
28.07172394 127.34349823 1.42180443 -1932.000000
28.07574463 127.28157043 1.42366791 -1936.000000
28.09074020 127.28732300 1.42364836 -1936.000000
28.06274033 127.27439880 1.42368221 -1927.000000
28.04998016 127.33415222 1.42183161 -1940.000000
28.03543472 127.32987976 1.42136478 -1938.000000
28.08875656 127.34588623 1.42275333 -1932.000000
28.04595566 127.39608765 1.41996765 -1945.000000
28.01410294 127.32347107 1.42041922 -1950.000000
27.98656845 127.31153870 1.42045355 -1948.000000
27.99961090 127.31724548 1.42043734 -1948.000000
28.01585197 127.38896942 1.41903734 -1949.000000
28.03083420 127.39521027 1.41901827 -1949.000000
27.97334290 127.37030792 1.41860104 -1958.000000
27.99464798 127.37768555 1.41906118 -1945.000000
28.06691742 127.47428894 1.41807938 -1942.000000
28.07587242 127.41052246 1.42042112 -1933.000000
28.08790016 127.41767120 1.41991997 -1943.000000
28.05889893 127.40570068 1.41946840 -1940.000000
28.08348846 127.47568512 1.41902828 -1932.000000
28.04131889 127.46289063 1.41762304 -1954.000000
28.05140686 127.46949768 1.41761303 -1947.000000
28.01506042 127.45831299 1.41668749 -1949.000000
28.00506973 127.44779968 1.41766930 -1952.000000
27.97154999 127.44059753 1.41625595 -1959.000000
27.99384308 127.44750977 1.41671228 -1952.000000
28.01400375 127.51885223 1.41530466 -1949.000000
28.03055573 127.46359253 1.41666651 -1952.000000
28.00374985 127.51859283 1.41483498 -1959.000000
27.98150826 127.50972748 1.41437578 -1954.000000
27.94792175 127.37112427 1.41669512 -1966.000000
27.95405960 127.30289459 1.41952419 -1961.000000
27.96915436 127.30474854 1.41998768 -1955.000000
27.91302872 127.28378296 1.41908646 -1960.000000
27.93429565 127.29262543 1.41954708 -1962.000000
27.94092941 127.30061340 1.41856813 -1958.000000
27.94031143 127.36311340 1.41718769 -1963.000000
27.91949463 127.35575104 1.41672707 -1964.000000
27.89899826 127.27853394 1.41910505 -1968.000000
27.86230469 127.31912231 1.41824818 -1983.000000
27.87278366 127.32965088 1.41726685 -1981.000000
27.84843636 127.32658386 1.41584253 -1986.000000
27.89101791 127.34232330 1.41676092 -1976.000000
27.90804291 127.34519958 1.41771078 -1974.000000
27.94375610 127.49606323 1.41393852 -1966.000000
