//X Y Z Scalar_field
979
27.13771439 118.80983734 1.17710066 -1857.000000
27.49472427 118.90823364 1.15967941 -2005.000000
27.43256378 118.86106110 1.14695501 -2036.000000
27.49238968 118.90232849 1.16016579 -2024.000000
27.46107483 118.87079620 1.16747618 -1992.000000
27.47641754 118.86066437 1.16552877 -1977.000000
27.47408295 118.85475159 1.16650343 -1978.000000
27.47035217 118.85021973 1.16650152 -2015.000000
27.46133804 118.85285187 1.16454506 -2023.000000
27.48471832 118.85940552 1.16699600 -1993.000000
27.48937607 118.87189484 1.16553497 -1999.000000
27.49627686 118.87199402 1.16651392 -1990.000000
27.47756195 118.87725830 1.16260004 -1966.000000
27.49263382 118.88507080 1.16358280 -1984.000000
27.45243454 118.87171173 1.16600704 -2001.000000
27.45779419 118.88283539 1.16454506 -1971.000000
27.46152878 118.88738251 1.16454697 -2019.000000
27.47343826 118.89964294 1.16406488 -1999.000000
27.47541809 118.90588379 1.16308928 -1973.000000
27.46279907 118.89500427 1.16308308 -1970.000000
27.44689941 118.89614105 1.16649437 -1956.000000
27.46548080 118.90055847 1.16259623 -2026.000000
27.50803375 118.91913605 1.15968561 -2025.000000
27.53014755 118.91806793 1.15725374 -2016.000000
27.53551102 118.92919922 1.15628004 -2025.000000
27.53318024 118.92329407 1.15676641 -2027.000000
27.51480865 118.92819977 1.15920067 -1993.000000
27.52179337 118.94661713 1.15676308 -1993.000000
27.51489639 118.94582367 1.15627193 -2029.000000
27.51256561 118.93991852 1.15675879 -2013.000000
27.49723434 118.94935608 1.15870667 -2008.000000
27.50435257 118.95878601 1.15822124 -2025.000000
27.52420044 118.89933014 1.15969133 -2022.000000
27.51813507 118.88890076 1.16115284 -2012.000000
27.52046967 118.89479065 1.16017723 -1991.000000
27.49076080 118.89575195 1.16162968 -2015.000000
27.50534821 118.91356659 1.16066122 -1991.000000
27.50301743 118.90766907 1.16114759 -2019.000000
27.53414154 118.90466309 1.16067266 -1836.000000
27.52899170 118.90217590 1.16018152 -2019.000000
27.51317596 118.92162323 1.16017580 -2027.000000
27.47798157 118.91973114 1.16113758 -2007.000000
27.47423935 118.91587830 1.16162395 -1977.000000
27.48311615 118.92292023 1.16162777 -2008.000000
27.48298264 118.93190002 1.15967560 -2032.000000
27.48707581 118.93540192 1.15967751 -2008.000000
27.40533066 118.92904663 1.16061974 -2024.000000
27.44034195 118.89569855 1.16600323 -1995.000000
27.42115402 118.90959167 1.16062546 -2030.000000
27.44395828 118.90853119 1.16405296 -1995.000000
27.45411301 118.92250061 1.16308117 -2008.000000
27.44790649 118.92171478 1.16259003 -2015.000000
27.44417953 118.91716766 1.16258812 -2002.000000
27.43024826 118.92526245 1.16502428 -1988.000000
27.42826843 118.91901398 1.16551161 -1994.000000
27.42593002 118.91311646 1.16648674 -1961.000000
27.44251633 118.93648529 1.16503000 -2011.000000
27.43140030 118.94115448 1.16209650 -2015.000000
27.42800522 118.93696594 1.16258240 -1995.000000
27.41105270 118.93913269 1.16550541 -1867.000000
27.40731430 118.93527985 1.16550398 -2018.000000
27.41372681 118.94538879 1.16501856 -1998.000000
27.43781281 118.95127106 1.16747093 -1983.000000
27.46949387 118.95724487 1.15918303 -2017.000000
27.46506500 118.95339203 1.15918112 -2011.000000
27.46133041 118.94884491 1.15917921 -2018.000000
27.49209213 118.94687653 1.15821505 -2029.000000
27.48729706 118.94403839 1.15821314 -2024.000000
27.50597763 118.96537781 1.15724659 -2029.000000
27.49956894 118.95526886 1.15821886 -2012.000000
27.47358704 118.96076965 1.15918493 -2020.000000
27.47275925 118.97042084 1.15723276 -2021.000000
27.48466873 118.98267365 1.15674925 -2023.000000
27.48479462 118.97369385 1.15821362 -2018.000000
27.47650146 118.97426605 1.15723467 -2012.000000
27.45425797 118.98430634 1.15771341 -2028.000000
27.45263290 118.97702789 1.15917730 -2008.000000
27.45728302 118.98952484 1.15722704 -2011.000000
27.46244431 118.99132538 1.15820503 -2003.000000
27.46406555 118.99860382 1.15674162 -2007.000000
27.46474838 118.92712402 1.16357374 -1976.000000
27.46065903 118.92362976 1.16357183 -1958.000000
27.46286011 118.93849945 1.16162014 -1998.000000
27.45046997 118.93556976 1.16600990 -1942.000000
27.44997787 118.94557190 1.16454554 -1974.000000
27.44635010 118.95795441 1.16161442 -1987.000000
27.44692230 118.96624756 1.16015053 -2008.000000
27.43486404 118.96364594 1.16454029 -1924.000000
27.42177200 118.96208191 1.16306973 -2025.000000
27.44995117 118.97146606 1.15966415 -1995.000000
27.43334198 118.97398376 1.16258669 -1965.000000
27.39577484 118.99279022 1.15964222 -2012.000000
27.39589310 118.98449707 1.16110659 -1986.000000
27.37357330 118.97622681 1.15914392 -2033.000000
27.36528015 118.97679901 1.15230417 -2039.000000
27.40191650 118.95006561 1.16843176 -1896.000000
27.41453171 118.96162415 1.16209030 -2015.000000
27.41254807 118.95538330 1.16257715 -1974.000000
27.39791489 118.96416473 1.16501284 -2013.000000
27.39708328 118.97380829 1.16305971 -1969.000000
27.37380219 118.98418427 1.16402769 -2025.000000
27.38126373 118.99326324 1.16354227 -1989.000000
27.37893677 118.98736572 1.16403008 -2005.000000
27.41563797 119.00411987 1.16062832 -1957.000000
27.43878174 119.00341797 1.15819597 -2033.000000
27.45035553 119.01532745 1.15771341 -2011.000000
27.44112778 119.00863647 1.15770912 -2019.000000
27.44346237 119.01453400 1.15673351 -1989.000000
27.42029572 119.01661682 1.15916586 -2021.000000
27.42905045 119.03193665 1.15770578 -2004.000000
27.42249680 119.03150177 1.15672588 -1987.000000
27.41805649 119.02833557 1.15672350 -2027.000000
27.43496323 118.98126221 1.16161108 -2000.000000
27.43764114 118.98682404 1.16112471 -1986.000000
27.41694641 118.98514557 1.16404581 -1956.000000
27.41040421 118.98401642 1.16355371 -2022.000000
27.41788483 118.99242401 1.16306973 -1971.000000
27.43822479 118.99443817 1.15966034 -2021.000000
27.40394211 119.00119781 1.16550636 -1968.000000
27.38219833 119.00052643 1.16207886 -1975.000000
27.38509750 119.01472473 1.16012716 -2024.000000
27.40474319 119.01742554 1.16257715 -1871.000000
27.40066147 119.01322937 1.16257524 -1961.000000
27.41937256 119.00866699 1.16014099 -1997.000000
27.40319824 119.02845764 1.16062450 -1988.000000
27.33781433 119.03683472 1.16108513 -2025.000000
27.33879471 119.01750946 1.15278387 -2035.000000
27.33023071 119.03672028 1.15424633 -2038.000000
27.36369324 119.01441193 1.16304827 -2005.000000
27.36382294 119.00543976 1.16451263 -2005.000000
27.35290146 119.04465485 1.16206932 -1951.000000
27.36471558 119.03929901 1.15865564 -2000.000000
27.39991379 119.04119110 1.15769386 -2013.000000
27.41111755 119.05412292 1.15721130 -1990.000000
27.40668106 119.05096436 1.15672016 -2005.000000
27.40223312 119.04779053 1.15671825 -2014.000000
27.38620377 119.05790710 1.15866613 -1996.000000
27.35404205 119.06124115 1.15914059 -2020.000000
27.39566040 119.07254791 1.15720606 -2005.000000
27.38875580 119.07244110 1.15622616 -2011.000000
27.38501740 119.06859589 1.15671206 -2018.000000
27.36722183 119.08110809 1.15768242 -1997.000000
27.38030624 119.01189423 1.16012478 -2000.000000
27.36883545 119.01690674 1.16305017 -1977.000000
27.38589096 119.03165436 1.16305828 -1916.000000
27.37969589 119.03018188 1.16256762 -2028.000000
27.36414337 119.03100586 1.16011906 -1989.000000
27.37253952 119.04735565 1.16451836 -1869.000000
27.38822174 119.03755951 1.16257143 -1980.000000
27.38597488 119.04927063 1.16012907 -1952.000000
27.34951019 119.04046631 1.16206741 -1989.000000
27.34507370 119.03659058 1.16206551 -2009.000000
27.34130096 119.05863190 1.16401815 -1931.000000
27.33312225 119.05091858 1.16401434 -2011.000000
27.35918427 119.06373596 1.16549063 -2001.000000
27.35205841 119.05500031 1.16011524 -2000.000000
27.37262344 119.06564331 1.16110182 -1876.000000
27.36854172 119.06144714 1.16109943 -1996.000000
28.44343185 119.54006195 1.19087839 -2036.000000
28.59227753 118.25112152 1.17426538 -2039.000000
28.64206314 117.86510468 1.18110085 -2036.000000
28.66150665 117.88161469 1.18110991 -2033.000000
28.64639664 117.87586975 1.17963791 -2020.000000
28.64230347 117.87236023 1.17963600 -2025.000000
28.65423965 117.88255310 1.17964172 -2032.000000
28.65015030 117.87903595 1.17963982 -2020.000000
28.67064667 117.89452362 1.17964935 -2035.000000
28.66596222 117.88410187 1.18111181 -2025.000000
28.67813873 117.90154266 1.17916489 -2029.000000
28.67942810 117.90778351 1.17818975 -2033.000000
28.67228317 117.90042877 1.17867422 -2035.000000
28.68210983 117.91333771 1.17770195 -2027.000000
28.67918777 117.92434692 1.18063164 -2004.000000
28.74196243 117.97705078 1.18017340 -2038.000000
28.73433685 117.97901154 1.17870474 -2034.000000
28.75390244 117.98724365 1.17968988 -2036.000000
28.76162720 118.00219727 1.17822981 -2037.000000
28.75507355 118.00176239 1.17724991 -2033.000000
28.75062180 117.99926758 1.17676020 -2032.000000
28.76877594 118.00955963 1.17774391 -2039.000000
28.77486801 118.01793671 1.17725945 -2037.000000
28.82451248 118.07113647 1.17972422 -2037.000000
28.75574875 118.05080414 1.17285824 -2038.000000
28.64694214 117.98154449 1.17525005 -2040.000000
28.61241150 117.90956879 1.17816162 -2032.000000
28.63338852 117.89191437 1.17963314 -2018.000000
28.62788391 117.89046478 1.17914295 -2026.000000
28.62659454 117.88423157 1.18011904 -2036.000000
28.64638519 117.90039063 1.18012857 -2036.000000
28.63431549 117.89919281 1.17865801 -2030.000000
28.64053726 117.89927673 1.17963648 -2033.000000
28.61533356 117.89855957 1.18109131 -2040.000000
28.65868378 117.90954590 1.18013430 -2029.000000
28.65564346 117.90501404 1.18062067 -2033.000000
28.65119171 117.90253448 1.18061829 -2023.000000
28.66993332 117.91972351 1.18013954 -2032.000000
28.66067505 117.91510010 1.17964602 -2033.000000
28.66617966 117.91656494 1.18013763 -2035.000000
28.65563202 117.92952728 1.18111038 -2039.000000
28.65399551 117.92364502 1.18208551 -2033.000000
28.64603043 117.92524719 1.18061733 -2024.000000
28.62061310 117.91590118 1.17865324 -2034.000000
28.62365723 117.92043304 1.17816687 -2035.000000
28.61404800 117.91615295 1.17718554 -2026.000000
28.59846878 117.91903687 1.17962027 -2041.000000
28.61006165 117.92887115 1.17962551 -2035.000000
28.60560989 117.92639923 1.17962360 -2034.000000
28.60046005 117.92458344 1.17913342 -2036.000000
28.63665009 117.92890167 1.17817307 -2035.000000
28.63254929 117.92609406 1.17817116 -2030.000000
28.62986755 117.92053223 1.17914581 -2036.000000
28.64368057 117.94454956 1.18208265 -2034.000000
28.63160706 117.94333649 1.18012476 -2032.000000
28.63851929 117.94275665 1.18159246 -2025.000000
28.61274719 117.93443298 1.17913914 -2037.000000
28.61438370 117.94032288 1.17816401 -2035.000000
28.61942291 117.95041656 1.17718983 -2037.000000
28.64764786 117.95635223 1.18013239 -2039.000000
28.67156219 117.92631531 1.17916346 -1964.000000
28.66875076 117.92971802 1.18306828 -2029.000000
28.66723251 117.93936920 1.18111563 -2033.000000
28.67108536 117.95944977 1.17770004 -2039.000000
28.69380951 117.96392059 1.18063974 -2033.000000
28.68900299 117.96178436 1.18015003 -2018.000000
28.67963409 117.96544647 1.17819309 -2014.000000
28.67483139 117.96330261 1.17770195 -2030.000000
28.69884109 117.97401428 1.17917776 -2037.000000
28.69685364 117.96845245 1.18015385 -2033.000000
28.69016647 117.97699738 1.18259239 -2037.000000
28.65560532 117.97927094 1.17720652 -2038.000000
28.64155579 117.97180176 1.17622328 -2032.000000
28.67915726 117.97406006 1.18161154 -2020.000000
28.67365646 117.97261810 1.18112040 -2024.000000
28.67095184 117.96842194 1.18160772 -2036.000000
28.68254852 117.97826385 1.18112421 -2037.000000
28.68442917 117.99210358 1.17917299 -2039.000000
28.66485977 117.98387909 1.18306971 -2038.000000
28.55334854 117.95877838 1.18155718 -2039.000000
28.59143448 117.92790985 1.18254757 -2039.000000
28.58697891 117.92543793 1.18205738 -2038.000000
28.58218765 117.92259216 1.18205547 -2040.000000
28.59588242 117.93038940 1.18254995 -2041.000000
28.59634399 117.94628906 1.17962074 -2036.000000
28.57608414 117.93874359 1.18351889 -2040.000000
28.59247971 117.95071411 1.18352652 -2032.000000
28.61285782 117.95066833 1.17572212 -2034.000000
28.60254669 117.94707489 1.18060064 -2037.000000
28.60277939 117.95500946 1.17913628 -2024.000000
28.61918259 117.96698761 1.17914391 -2004.000000
28.61402893 117.96517944 1.17865324 -2024.000000
28.59879684 117.96772766 1.17571735 -2028.000000
28.60500717 117.96851349 1.17669678 -2033.000000
28.54221725 117.96414948 1.17862272 -2033.000000
28.58625793 117.97514343 1.18352509 -2035.000000
28.58250046 117.97198486 1.18352365 -2036.000000
28.58566284 117.96823120 1.17912960 -2034.000000
28.58941650 117.97138214 1.17913151 -2028.000000
28.58788681 117.98173523 1.18792057 -2038.000000
28.59375763 117.98216248 1.17766857 -2027.000000
28.59104919 117.97797394 1.17815638 -2029.000000
28.59819794 117.98532104 1.17767048 -2024.000000
28.58050537 117.99093628 1.17912865 -2028.000000
28.58518982 118.00137329 1.17815542 -2034.000000
28.58145142 117.99752045 1.17815351 -2033.000000
28.61529922 117.99663544 1.17816782 -2029.000000
28.62363434 117.96947479 1.17914581 -2033.000000
28.62654495 117.98297882 1.17719460 -2036.000000
28.63686371 117.98588562 1.17817640 -2036.000000
28.62034607 117.98220062 1.17621517 -2035.000000
28.61330414 117.99107361 1.17914248 -2034.000000
28.63673401 117.99485779 1.17622280 -2033.000000
28.62889862 117.98749542 1.17670822 -2028.000000
28.65197372 117.99163055 1.17964697 -2040.000000
28.64751816 117.98915863 1.17915678 -2039.000000
28.63649368 118.01142883 1.17866516 -2036.000000
28.60429001 117.99369812 1.17718601 -2035.000000
28.60230255 117.98815155 1.17767239 -2024.000000
28.62033081 118.00670624 1.17670536 -2035.000000
28.61869049 118.00081635 1.17768002 -2024.000000
28.60100174 118.00643158 1.17962599 -2036.000000
28.58683014 118.00727081 1.17717934 -2028.000000
28.59408569 118.00701904 1.17815924 -2036.000000
28.60510254 118.00926208 1.17962790 -2027.000000
28.60602951 118.01651764 1.17816496 -2028.000000
28.60802841 118.02207184 1.17767668 -2029.000000
28.62477875 118.00987244 1.17719555 -2037.000000
28.62536621 118.01679993 1.17573118 -2037.000000
28.63589478 118.02903748 1.18061924 -2040.000000
28.61820602 118.03465271 1.17670631 -2033.000000
28.60824203 118.03070068 1.17572498 -2033.000000
28.61304855 118.03285980 1.17621469 -2033.000000
28.63119888 118.04312134 1.18257093 -2039.000000
28.62335205 118.03644562 1.17719650 -2030.000000
28.74134064 118.04437256 1.17773438 -2038.000000
28.68477249 118.01628876 1.17429113 -2039.000000
28.72566223 117.98199463 1.17674875 -2037.000000
28.72238159 117.99404144 1.17918873 -2027.000000
28.72367096 118.00026703 1.17821360 -2037.000000
28.71089554 118.00042725 1.17625427 -2034.000000
28.73163605 117.99865723 1.17968082 -2039.000000
28.74146652 118.01157379 1.17870951 -2036.000000
28.73361588 118.00489807 1.17870617 -2037.000000
28.72412109 118.01684570 1.18016815 -2037.000000
28.74240494 118.01815796 1.17724562 -2035.000000
28.74440002 118.02371216 1.17675877 -2035.000000
28.67868042 118.00790405 1.17477703 -2039.000000
28.68780136 118.02150726 1.17380476 -2039.000000
28.70444107 118.01690674 1.17722940 -2038.000000
28.70069885 118.01305389 1.17722750 -2034.000000
28.70700836 118.03006744 1.17479038 -2036.000000
28.71100616 118.01666260 1.17820930 -2037.000000
28.72493362 118.03240967 1.17723894 -2041.000000
28.72551346 118.04000092 1.17577505 -2034.000000
28.69353867 118.03022766 1.17820263 -2030.000000
28.73546982 118.04394531 1.17675638 -2036.000000
28.75985718 118.02909851 1.17774153 -2036.000000
28.75294495 118.02970123 1.17676306 -2039.000000
28.75130081 118.02380371 1.17773771 -2033.000000
28.76277924 118.04192352 1.18116188 -2037.000000
28.76078796 118.03636932 1.17676687 -2039.000000
28.73031616 118.04215240 1.17626476 -2023.000000
28.75059509 118.04899597 1.17773867 -2037.000000
28.74472809 118.04856873 1.17724848 -2034.000000
28.72726440 118.06211853 1.17724180 -2039.000000
28.72246170 118.05998993 1.17675161 -2039.000000
28.74448776 118.06513977 1.17920256 -2039.000000
28.73205948 118.06496429 1.17724371 -2038.000000
28.66493607 118.05052948 1.17526150 -2039.000000
28.67573547 118.02029419 1.17184639 -2036.000000
28.67372894 118.03925323 1.17331219 -2037.000000
28.67033768 118.03507233 1.17379808 -2040.000000
28.67115402 118.02610016 1.17575121 -2037.000000
28.68416595 118.03388214 1.17624474 -2027.000000
28.70453262 118.05834961 1.17430162 -2038.000000
28.70078659 118.05448914 1.17478943 -2039.000000
28.69645691 118.04373169 1.17625046 -2030.000000
28.69587326 118.03611755 1.17771482 -2033.000000
28.70231628 118.04415894 1.17723036 -2035.000000
28.68625259 118.05635834 1.17771196 -2011.000000
28.68251419 118.05250549 1.17771006 -2026.000000
28.67701340 118.05104828 1.17721987 -2012.000000
28.69468307 118.07063293 1.17576361 -2037.000000
28.68753815 118.06327820 1.17624807 -2002.000000
28.69092941 118.06747437 1.17624950 -2036.000000
28.66938400 118.05299377 1.17575169 -2023.000000
28.67090607 118.06717682 1.17868328 -2029.000000
28.66820908 118.06231689 1.17917013 -2014.000000
28.66200256 118.06221771 1.17819118 -2028.000000
28.67910004 118.07351685 1.17868710 -2000.000000
28.67499924 118.07069397 1.17819738 -2009.000000
28.67827225 118.08317566 1.17673445 -2036.000000
28.66233826 118.08639526 1.17868042 -2035.000000
28.66889572 118.08683777 1.17965937 -2035.000000
28.67017365 118.09375763 1.17868423 -2036.000000
28.67920303 118.09043884 1.17527008 -2038.000000
28.71074677 118.05843353 1.17528152 -2034.000000
28.71434402 118.09578705 1.17382002 -2035.000000
28.71625137 118.05990601 1.17625999 -2032.000000
28.73194122 118.07324982 1.17577934 -2036.000000
28.71155548 118.07398987 1.17772341 -2033.000000
28.70463943 118.07458496 1.17674494 -2036.000000
28.69913864 118.07311249 1.17625332 -2036.000000
28.71517563 118.08612823 1.17626095 -2034.000000
28.71600723 118.07646179 1.17821503 -2036.000000
28.71950150 118.09757996 1.17431021 -2038.000000
28.74047470 118.10375214 1.17676210 -2038.000000
28.69231796 118.09062195 1.17722845 -2033.000000
28.68648148 118.08880615 1.17673826 -2038.000000
28.70193100 118.09490967 1.17772055 -2028.000000
28.69466400 118.09584808 1.17625284 -2025.000000
28.70251465 118.10251617 1.17625666 -2036.000000
28.71586227 118.11065674 1.17138100 -2042.000000
28.72511673 118.11528015 1.17187262 -2037.000000
28.72288513 118.12629700 1.17480278 -2036.000000
28.70309067 118.11013031 1.17479324 -2027.000000
28.70507813 118.11567688 1.17430544 -2021.000000
28.70249176 118.12772369 1.17137623 -2034.000000
28.71807861 118.12415314 1.17431116 -2036.000000
28.70729446 118.12985992 1.17186594 -2039.000000
28.57239532 118.05056763 1.17717552 -2035.000000
28.51421356 117.99067688 1.17421722 -2028.000000
28.52546310 117.97702789 1.17324591 -2039.000000
28.54314804 117.97141266 1.18252993 -2040.000000
28.52322388 117.98803711 1.17617416 -2035.000000
28.57757187 118.00263977 1.18205786 -2036.000000
28.57498932 118.01399994 1.17961550 -2039.000000
28.50084686 118.00774384 1.17470217 -2021.000000
28.52521896 117.99359894 1.18105888 -2029.000000
28.50916290 118.00579071 1.17616940 -2033.000000
28.50763702 118.01544952 1.17958736 -2033.000000
28.57543182 118.05508423 1.17717695 -2027.000000
28.57427979 118.01535797 1.18449879 -2037.000000
28.58763504 118.02349854 1.17962122 -2034.000000
28.57662201 118.02058411 1.17864037 -2029.000000
28.58248520 118.02101135 1.17913151 -2033.000000
28.59231949 118.03324127 1.17816019 -2024.000000
28.58927536 118.02940369 1.17864656 -2033.000000
28.57276154 118.02502441 1.18791676 -2040.000000
28.57509232 118.03092957 1.18157053 -2035.000000
28.56993866 118.02912140 1.18107939 -2033.000000
28.57533264 118.03817749 1.18010616 -2036.000000
28.60765457 118.04762268 1.17767811 -2030.000000
28.60214996 118.04616547 1.17718792 -2025.000000
28.61796188 118.05123138 1.17865992 -2040.000000
28.61104584 118.05180359 1.17768002 -2029.000000
28.59219360 118.04221344 1.17669582 -2006.000000
28.59383011 118.04879761 1.17571974 -2000.000000
28.55364990 118.05719757 1.18400383 -2039.000000
28.55504608 118.05583191 1.17912149 -2039.000000
28.55973053 118.06626892 1.17765903 -2037.000000
28.58877945 118.06322479 1.17718315 -2011.000000
28.58432770 118.06075287 1.17718124 -1920.000000
28.57883835 118.05860138 1.17669106 -1992.000000
28.60142899 118.07205200 1.17767715 -2037.000000
28.59217453 118.06742859 1.17718506 -2039.000000
28.59732819 118.06922150 1.17767525 -2036.000000
28.59228516 118.08366394 1.17913914 -2031.000000
28.57635880 118.08687592 1.17620230 -2039.000000
28.46931839 118.06288910 1.17517948 -2029.000000
28.48924637 118.02173615 1.17518568 -2021.000000
28.48303986 118.02096558 1.17469501 -2029.000000
28.49544907 118.02252197 1.17616463 -2029.000000
28.48384094 118.03720093 1.17713737 -2031.000000
28.49251556 118.03421783 1.17909384 -2031.000000
28.49028778 118.04522705 1.17665291 -2037.000000
28.47799301 118.03606415 1.17664719 -2026.000000
28.47212982 118.03495789 1.18103886 -2038.000000
28.47459793 118.03188324 1.17664528 -2033.000000
28.47025681 118.04563141 1.17859697 -2036.000000
28.47691727 118.06230164 1.17664814 -2037.000000
28.46802139 118.05665588 1.17615461 -2035.000000
28.48886871 118.07180023 1.17128277 -2039.000000
28.52609253 118.10031128 1.17667103 -2040.000000
28.54004288 118.09083557 1.17521095 -2033.000000
28.56944275 118.08747101 1.17522335 -2029.000000
28.55126953 118.10240173 1.17472887 -2031.000000
28.54413605 118.09435272 1.17521286 -2034.000000
28.54577255 118.10024261 1.17423725 -2029.000000
28.55701828 118.11111450 1.17424250 -2033.000000
28.55642700 118.10351563 1.17521858 -2021.000000
28.56674957 118.08260345 1.17571020 -2021.000000
28.56370163 118.07805634 1.17619658 -2028.000000
28.55820465 118.07659149 1.17570639 -2036.000000
28.57868958 118.09277344 1.17571592 -2031.000000
28.56602859 118.10848236 1.17619944 -2038.000000
28.53416443 118.11492920 1.17521000 -2024.000000
28.52585602 118.11688995 1.17374182 -2030.000000
28.54224396 118.12954712 1.17374945 -2031.000000
28.53651047 118.12014771 1.17472363 -2035.000000
28.53019714 118.10313416 1.17667294 -2039.000000
28.54341507 118.12023163 1.17570257 -2036.000000
28.52197647 118.12200928 1.17764616 -2036.000000
28.53252029 118.13354492 1.17667580 -2034.000000
28.52982712 118.12868500 1.17764997 -2039.000000
28.66265488 118.13648224 1.17477798 -2036.000000
28.59507751 118.10545349 1.18109465 -2037.000000
28.61291885 118.06564331 1.18061161 -2039.000000
28.64160156 118.08817291 1.17525387 -2039.000000
28.65401840 118.08904266 1.17721224 -2036.000000
28.65062332 118.08483887 1.17721081 -2033.000000
28.65213394 118.09971619 1.18014240 -2036.000000
28.64663315 118.09825897 1.17965078 -2037.000000
28.62811661 118.11283875 1.17378473 -2040.000000
28.63595581 118.12019348 1.17915964 -2039.000000
28.62552643 118.12488556 1.17671442 -2039.000000
28.64858627 118.15422821 1.17428350 -2033.000000
28.66513824 118.10820007 1.17477703 -2033.000000
28.68352127 118.12641144 1.17429686 -2039.000000
28.67684937 118.10974121 1.17673540 -2033.000000
28.67100143 118.10862732 1.17575598 -2039.000000
28.68575287 118.11539459 1.17673922 -2036.000000
28.68165588 118.11188507 1.17673731 -2029.000000
28.65762711 118.12569427 1.17575121 -2037.000000
28.65422821 118.12219238 1.17623711 -2036.000000
28.65118790 118.11766052 1.17672491 -2040.000000
28.67096710 118.13452911 1.17624521 -2037.000000
28.66206741 118.12886047 1.17624092 -2039.000000
28.69171524 118.13274384 1.17430067 -2027.000000
28.70670700 118.14677429 1.17382002 -2022.000000
28.69956207 118.13941956 1.17430449 -2036.000000
28.69369888 118.13899994 1.17332602 -2033.000000
28.70295334 118.14361572 1.17381811 -2029.000000
28.69310379 118.15590668 1.17527962 -2015.000000
28.68724060 118.15546417 1.17478943 -2027.000000
28.69148636 118.12481689 1.17576551 -2030.000000
28.64742661 118.13901520 1.17721224 -2038.000000
28.64438248 118.13448334 1.17769861 -2039.000000
28.64976120 118.14421844 1.17623663 -2036.000000
28.67248917 118.14870453 1.17331791 -2035.000000
28.67588043 118.15289307 1.17331934 -2030.000000
28.67085266 118.14280701 1.17429256 -2039.000000
28.67997742 118.15640259 1.17332125 -2029.000000
28.65771103 118.16781616 1.17331266 -2033.000000
28.65431976 118.16362762 1.17331076 -2036.000000
28.64986801 118.16114807 1.17330885 -2035.000000
28.67563629 118.17015076 1.17527294 -2026.000000
28.67048264 118.16835022 1.17527056 -2027.000000
28.66427612 118.16756439 1.17429113 -2021.000000
28.68219757 118.16990662 1.17625189 -2026.000000
28.56284714 118.13743591 1.17522335 -2041.000000
28.58053970 118.13182831 1.17376566 -2038.000000
28.57258987 118.10823822 1.17717886 -2039.000000
28.60243607 118.14595032 1.17426348 -2039.000000
28.61814117 118.13410950 1.17915297 -2039.000000
28.54915237 118.12964630 1.17472935 -2033.000000
28.56330490 118.15333557 1.17229509 -2039.000000
28.55535507 118.13043213 1.17570829 -2036.000000
28.57327271 118.13275909 1.17766857 -2036.000000
28.63109207 118.19368744 1.17476749 -1971.000000
28.63990402 118.15720367 1.17818737 -2036.000000
28.63838577 118.16685486 1.17574549 -2031.000000
28.61517715 118.17169189 1.18208361 -2040.000000
28.64037323 118.17309570 1.17477036 -2040.000000
28.66086578 118.18858337 1.17477989 -2034.000000
28.65266800 118.18224335 1.17526388 -2021.000000
28.65641022 118.18610382 1.17477798 -2038.000000
28.64540482 118.18317413 1.17379618 -2005.000000
28.64130020 118.18035126 1.17330647 -2026.000000
28.63625336 118.19548035 1.17525768 -1995.000000
28.62770081 118.18948364 1.17525387 -2024.000000
28.63951874 118.20796967 1.17330742 -2038.000000
28.63753510 118.20171356 1.17428160 -2025.000000
28.62510300 118.22605133 1.17330217 -2037.000000
28.62112808 118.21425629 1.17476463 -2015.000000
28.62170792 118.22186279 1.17378807 -2032.000000
28.62066650 118.19835663 1.17818165 -2028.000000
28.62231064 118.20426178 1.17671776 -1997.000000
28.89432907 118.23340607 1.17439222 -2035.000000
28.82481766 118.12120819 1.17533302 -2034.000000
28.80395508 118.13125610 1.17532492 -2040.000000
28.82332993 118.08112335 1.17728329 -2039.000000
28.83995056 118.10173798 1.17582703 -2038.000000
28.81792450 118.09658813 1.17923498 -2039.000000
28.81101227 118.09719086 1.17776680 -2034.000000
28.82576752 118.10326385 1.17875051 -2038.000000
28.82354355 118.11428070 1.17630816 -2036.000000
28.79634094 118.13253784 1.17385721 -2036.000000
28.80269241 118.09912872 1.17629862 -2036.000000
28.81393051 118.10999298 1.17581606 -2033.000000
28.80033493 118.11912537 1.17727566 -2037.000000
28.80841064 118.13375092 1.17581511 -2035.000000
28.82374573 118.14812469 1.17533445 -2032.000000
28.84721756 118.10081482 1.17729473 -2034.000000
28.84661484 118.11841583 1.17924833 -2035.000000
28.83971024 118.11830902 1.17826939 -2039.000000
28.83174133 118.12061310 1.17631245 -2037.000000
28.85152817 118.13678741 1.17632151 -2030.000000
28.84368134 118.13011932 1.17631769 -2035.000000
28.84777832 118.13362122 1.17631960 -2036.000000
28.86840057 118.14014435 1.17828274 -2034.000000
28.87800217 118.14442444 1.17877483 -2035.000000
28.87425613 118.14125061 1.17877340 -2030.000000
28.86148834 118.14072418 1.17681503 -2022.000000
28.85422134 118.14167023 1.17583513 -2034.000000
28.87541962 118.15647125 1.17633295 -2038.000000
28.86603928 118.16014099 1.17925930 -2019.000000
28.82282257 118.14016724 1.17679882 -2027.000000
28.82294083 118.13187408 1.17826319 -2034.000000
28.81707764 118.13145447 1.17728376 -2039.000000
28.83510590 118.15001678 1.17680454 -2034.000000
28.81097031 118.14759064 1.17874670 -2025.000000
28.82890320 118.14923096 1.17582464 -2037.000000
28.82419968 118.16401672 1.17777634 -2027.000000
28.84869385 118.16609955 1.17534590 -2035.000000
28.84564590 118.16156006 1.17583275 -2034.000000
28.84401703 118.15497589 1.17680883 -2036.000000
28.84061050 118.15148163 1.17729473 -2039.000000
28.85771561 118.16278076 1.17730284 -2032.000000
28.84809113 118.18369293 1.17729998 -2031.000000
28.72240448 118.13559723 1.17284870 -2040.000000
28.77359009 118.15395355 1.17189550 -2039.000000
28.79411316 118.14356232 1.17678690 -2039.000000
28.77441025 118.16882324 1.17433739 -2036.000000
28.76819611 118.16873169 1.17335939 -2034.000000
28.76854706 118.16838837 1.17921829 -2030.000000
28.78083801 118.17823792 1.17922401 -1996.000000
28.79468536 118.15184021 1.17532206 -2040.000000
28.81517792 118.16733551 1.17533159 -2038.000000
28.81072998 118.16416931 1.17532969 -2035.000000
28.80546951 118.14613342 1.17825651 -2035.000000
28.80802917 118.15997314 1.17581654 -2025.000000
28.79140091 118.16388702 1.17825174 -2019.000000
28.78659058 118.16243744 1.17776060 -2033.000000
28.79197311 118.17218781 1.17629814 -2026.000000
28.80286407 118.18269348 1.17630339 -2024.000000
28.79537582 118.17567444 1.17630005 -2029.000000
28.79805374 118.18124390 1.17581367 -2026.000000
28.83567047 118.18283081 1.17534113 -2036.000000
28.81234741 118.19595337 1.17484426 -2029.000000
28.80520248 118.18859863 1.17532873 -2021.000000
28.80965042 118.19108582 1.17533064 -2015.000000
28.82089233 118.20195007 1.17484856 -2036.000000
28.83064651 118.17205048 1.17680407 -2040.000000
28.84082413 118.18463135 1.17583179 -2027.000000
28.83193207 118.17897797 1.17582798 -2037.000000
28.82780457 118.20137024 1.17631531 -2031.000000
28.77603149 118.17609406 1.17873383 -2022.000000
28.78820801 118.19353485 1.17727518 -2022.000000
28.76525116 118.18111420 1.17628765 -2030.000000
28.77027512 118.19189453 1.18019772 -2036.000000
28.77965164 118.18823242 1.17678308 -2027.000000
28.78059387 118.19480133 1.17580700 -2024.000000
28.81397247 118.20255280 1.17386866 -2034.000000
28.80717087 118.21936035 1.17484379 -2038.000000
28.80120468 118.20201111 1.17776871 -1997.000000
28.79781723 118.19782257 1.17776728 -1932.000000
28.79336166 118.19533539 1.17776489 -2008.000000
28.80834579 118.21006012 1.17679644 -2034.000000
28.80284119 118.20859528 1.17630482 -2012.000000
28.92292023 118.23830414 1.17782211 -2021.000000
28.86508942 118.17807007 1.17535353 -2039.000000
28.88618469 118.17596436 1.17389727 -2039.000000
28.90423584 118.16931915 1.17781067 -2024.000000
28.89837265 118.16889191 1.17732000 -2038.000000
28.87880707 118.16065979 1.17584658 -2038.000000
28.89296722 118.18435669 1.17878342 -2039.000000
28.90727615 118.17385101 1.17732430 -2033.000000
28.90914154 118.18838501 1.18025589 -2036.000000
28.90328217 118.18726349 1.17976427 -2039.000000
28.89812088 118.18614960 1.17927408 -2035.000000
28.91522217 118.19744873 1.17928219 -2036.000000
28.91253662 118.19188690 1.18025780 -2033.000000
28.91439438 118.20710754 1.17732906 -2035.000000
28.87047577 118.18782043 1.17437935 -2039.000000
28.86697006 118.16740417 1.17779446 -2028.000000
28.87739182 118.18723297 1.17584753 -2039.000000
28.85804367 118.18764496 1.17828131 -2035.000000
28.85359573 118.18515778 1.17779016 -2034.000000
28.86951065 118.20645905 1.17633295 -2034.000000
28.86471558 118.20362854 1.17584324 -2027.000000
28.88989258 118.23022461 1.17438984 -2037.000000
28.89060593 118.20433807 1.17975998 -2039.000000
28.88616562 118.20117188 1.17975760 -2036.000000
28.89400101 118.20852661 1.17927361 -2038.000000
28.87607574 118.20619202 1.17731285 -2035.000000
28.89424133 118.21578979 1.17829800 -2038.000000
28.90710831 118.23324585 1.17683983 -2024.000000
28.92669296 118.21625519 1.17733479 -2018.000000
28.92258835 118.21344757 1.17733288 -2022.000000
28.91885757 118.20889282 1.17781878 -2029.000000
28.93489075 118.22260284 1.17733860 -2016.000000
28.93008423 118.22045898 1.17733669 -2024.000000
28.93618011 118.22882843 1.17636251 -2033.000000
28.94120026 118.23960114 1.17490149 -2040.000000
28.93710709 118.23609924 1.17489958 -2038.000000
28.95011139 118.24457550 1.17539310 -2039.000000
28.96322632 118.24475861 1.17735195 -2038.000000
28.95666885 118.24432373 1.17637205 -2040.000000
28.90125275 118.23212433 1.17585993 -2030.000000
28.91495132 118.23991394 1.17635441 -2024.000000
28.90944672 118.23844910 1.17586422 -2020.000000
28.92091751 118.25727081 1.17391682 -2036.000000
28.92699814 118.26632690 1.17294264 -2038.000000
28.92491150 118.24385071 1.17733574 -2030.000000
28.94997406 118.25354767 1.17929983 -2034.000000
28.94129944 118.25653076 1.17734337 -2032.000000
28.93307495 118.27608490 1.17734098 -2030.000000
28.81056595 118.22355652 1.17435598 -2028.000000
28.85955811 118.20251465 1.17535257 -2025.000000
28.85616684 118.19831085 1.17583895 -2034.000000
28.84057617 118.20188904 1.17827463 -2025.000000
28.84537506 118.20404816 1.17827702 -2026.000000
28.84877014 118.20822144 1.17778921 -2029.000000
28.83295822 118.20316315 1.17680645 -2025.000000
28.85064316 118.22206116 1.17583799 -2019.000000
28.84934998 118.21583557 1.17681456 -2018.000000
28.87417603 118.24208069 1.17536116 -2036.000000
28.86856461 118.22438812 1.17779875 -2022.000000
28.86199570 118.22465515 1.17682028 -2022.000000
28.85895538 118.22011566 1.17730665 -2021.000000
28.87921524 118.22765350 1.17878008 -2039.000000
28.87371445 118.22620392 1.17828989 -2039.000000
28.82263184 118.22475433 1.17631435 -2025.000000
28.81958008 118.22092438 1.17680216 -2027.000000
28.83562088 118.23393250 1.17632055 -2027.000000
28.83152771 118.23042297 1.17631817 -2027.000000
28.82778549 118.22656250 1.17680597 -2024.000000
28.82331467 118.24929810 1.17680502 -2014.000000
28.84346771 118.24060059 1.17632389 -2030.000000
28.83972168 118.23676300 1.17632246 -2021.000000
28.84616089 118.24548340 1.17583752 -2031.000000
28.86396027 118.25609589 1.17633343 -2021.000000
28.85682297 118.24804688 1.17681932 -2022.000000
28.85915756 118.25395966 1.17633152 -2009.000000
28.84956360 118.24897766 1.17583942 -2014.000000
28.83419037 118.26118469 1.17632151 -2004.000000
28.82846832 118.25109863 1.17729521 -2021.000000
28.82974625 118.25801849 1.17631912 -2011.000000
28.85105896 118.26454163 1.17828274 -2004.000000
28.83794022 118.26435089 1.17632294 -2019.000000
28.84415054 118.26513672 1.17681503 -2018.000000
28.87741852 118.28045654 1.17341185 -2024.000000
28.88716888 118.25125885 1.17536688 -2006.000000
28.88131332 118.25012970 1.17487669 -2028.000000
28.88108063 118.24217987 1.17634010 -2039.000000
28.90192413 118.25733185 1.17634964 -2021.000000
28.89818192 118.25348663 1.17683697 -2024.000000
28.89337540 118.25133514 1.17634583 -2023.000000
28.87907028 118.26184845 1.17731714 -1984.000000
28.87356186 118.26038361 1.17682695 -2007.000000
28.92078781 118.26624298 1.17196417 -2036.000000
28.91105270 118.27094269 1.17489052 -2031.000000
28.91889954 118.27761078 1.17489433 -2030.000000
28.91268158 118.27752686 1.17391443 -2028.000000
28.91259384 118.25991058 1.17733145 -2028.000000
28.90779495 118.25775909 1.17732906 -2016.000000
28.92827606 118.27395630 1.17733860 -2022.000000
28.90014648 118.28493500 1.17635059 -2026.000000
28.86630249 118.26131439 1.17584705 -2019.000000
28.87930679 118.26978302 1.17585325 -2014.000000
28.85948944 118.27881622 1.17682219 -1983.000000
28.85714722 118.27361298 1.17730856 -2013.000000
28.85376358 118.26873016 1.17779493 -2021.000000
28.86534500 118.27993774 1.17731237 -2025.000000
28.86931610 118.29174042 1.17584991 -2022.000000
28.86522293 118.28823853 1.17584801 -2022.000000
28.89393616 118.28484344 1.17537165 -2029.000000
28.88877869 118.28305054 1.17488194 -1995.000000
28.88397598 118.28089905 1.17439032 -2007.000000
28.90925980 118.29922485 1.17489147 -2034.000000
28.90212250 118.29118347 1.17537546 -2025.000000
28.90411758 118.29673767 1.17439985 -2025.000000
28.87950516 118.30362701 1.17487907 -2027.000000
28.89285278 118.31176758 1.17488527 -2018.000000
28.88219452 118.30849457 1.17439127 -2024.000000
28.88733673 118.31098938 1.17439365 -2020.000000
28.87997818 118.29499054 1.17634249 -2000.000000
28.87622833 118.29115295 1.17682981 -2000.000000
28.73218536 118.22345734 1.16797638 -2039.000000
28.69506454 118.18736267 1.17528200 -2031.000000
28.71910858 118.14833069 1.17529011 -2039.000000
28.71185303 118.14856720 1.17431021 -2034.000000
28.71829224 118.15730286 1.17333746 -2039.000000
28.70433807 118.16677856 1.17528486 -2024.000000
28.70095444 118.16257477 1.17528343 -2021.000000
28.69684601 118.15975952 1.17528152 -2019.000000
28.70878601 118.16994476 1.17528677 -2028.000000
28.71253586 118.17310333 1.18065977 -2039.000000
28.71641159 118.16798401 1.17675543 -2030.000000
28.69003296 118.17726135 1.17625570 -2027.000000
28.69272232 118.18214417 1.17576933 -2018.000000
28.68663788 118.17308044 1.17674303 -2026.000000
28.69389343 118.19666290 1.17869997 -2036.000000
28.69515991 118.20427704 1.18260717 -2037.000000
28.76134491 118.23665619 1.17531300 -2039.000000
28.77553940 118.20993042 1.17727041 -2039.000000
28.77002716 118.20916748 1.17678022 -2036.000000
28.76769257 118.20326233 1.17775488 -2038.000000
28.76488113 118.20667267 1.18214893 -2038.000000
28.76369095 118.21735382 1.17970705 -2039.000000
28.79485703 118.23541260 1.17532730 -2036.000000
28.78396606 118.22420502 1.17581034 -2033.000000
28.78020859 118.22104645 1.17629623 -2023.000000
28.78877258 118.22634125 1.17630005 -2039.000000
28.77234650 118.23957825 1.17678308 -2033.000000
28.76086426 118.24597168 1.17384863 -2037.000000
28.76403046 118.24153137 1.18068552 -2039.000000
28.75007248 118.25168610 1.17628527 -2039.000000
28.75791931 118.25835419 1.17628908 -2037.000000
28.64970779 118.21984863 1.17282295 -2030.000000
28.66905975 118.19492340 1.17527151 -2029.000000
28.67068863 118.20149994 1.17429543 -2025.000000
28.66354752 118.19414520 1.17429209 -2035.000000
28.67993546 118.20681763 1.17429972 -2035.000000
28.67407990 118.20569611 1.17380953 -2030.000000
28.67172241 118.22569275 1.17478657 -2034.000000
28.64595795 118.21668243 1.17282104 -2034.000000
28.64291000 118.21215057 1.17330885 -2039.000000
28.66340637 118.22764587 1.17331839 -2030.000000
28.65965271 118.22447968 1.17331648 -2027.000000
28.65520859 118.22131348 1.17331457 -2024.000000
28.63669205 118.23657227 1.17281866 -2027.000000
28.63223648 118.23410034 1.17281628 -2034.000000
28.64933014 118.24608612 1.17331362 -2027.000000
28.64008331 118.24077606 1.17282009 -2020.000000
28.64628601 118.24154663 1.17331219 -2018.000000
28.65131760 118.25164032 1.17233753 -2036.000000
28.66456604 118.24285126 1.17624855 -2035.000000
28.72227478 118.28752899 1.17041683 -2039.000000
28.74595642 118.27407837 1.17677402 -2039.000000
28.71968460 118.29959106 1.17334652 -2037.000000
28.71242142 118.30052185 1.17187786 -2036.000000
28.71054077 118.31118774 1.17529583 -2027.000000
28.81962585 118.31346893 1.17485428 -2029.000000
28.79492188 118.27823639 1.18314171 -2036.000000
28.79577637 118.24337006 1.17386293 -2022.000000
28.81030655 118.24150848 1.17631006 -2027.000000
28.80445480 118.24038696 1.17581987 -2026.000000
28.79401398 118.24575806 1.17874527 -2036.000000
28.79741669 118.24925995 1.17874718 -2030.000000
28.81674957 118.24954224 1.17582560 -2015.000000
28.81335449 118.24535370 1.17631149 -2019.000000
28.80397034 118.24970245 1.17972565 -2030.000000
28.80619431 118.26319885 1.17728662 -2019.000000
28.80350494 118.25833130 1.17777300 -2029.000000
28.79716110 118.26653290 1.18070078 -2039.000000
28.81650162 118.26680756 1.17826843 -2015.000000
28.83839035 118.28093719 1.17876625 -2034.000000
28.82702637 118.27903748 1.17729616 -2015.000000
28.83219147 118.28015137 1.17778635 -2016.000000
28.81813049 118.27339172 1.17680454 -2008.000000
28.81098938 118.26602936 1.17728901 -2009.000000
28.82258224 118.27586365 1.17729425 -2018.000000
28.79527283 118.27790070 1.17825985 -2037.000000
28.79643631 118.29309845 1.17533112 -2036.000000
28.80615997 118.28910065 1.17777586 -2034.000000
28.79515076 118.28618622 1.18216610 -2036.000000
28.79444122 118.28755951 1.17581797 -2036.000000
28.81669998 118.30064392 1.17680550 -2034.000000
28.81400299 118.29577637 1.17729187 -2024.000000
28.80780411 118.29499054 1.17680120 -2021.000000
28.79207993 118.30754089 1.17728329 -2035.000000
28.83846664 118.32375336 1.17535067 -2024.000000
28.85007858 118.30838013 1.17486668 -2012.000000
28.84634018 118.30452728 1.17486525 -2026.000000
28.84329605 118.30000305 1.17535114 -2007.000000
28.84284592 118.28340912 1.17876816 -2025.000000
28.84376907 118.29136658 1.17730427 -2016.000000
28.87571716 118.32637024 1.17536640 -2015.000000
28.87128067 118.32319641 1.17536449 -2027.000000
28.86823273 118.31864929 1.17536306 -2028.000000
28.86461258 118.30651855 1.17731380 -2030.000000
28.85805511 118.30607605 1.17633390 -2024.000000
28.86660767 118.31208038 1.17682695 -2027.000000
28.86586380 118.33934784 1.17682838 -2030.000000
28.86178207 118.33513641 1.17682648 -2025.000000
28.83367157 118.32091522 1.17534828 -2028.000000
28.82898712 118.31050110 1.17681122 -2031.000000
28.81903076 118.30654907 1.17582989 -2036.000000
28.83167648 118.31536865 1.17632341 -2030.000000
28.80368042 118.31737518 1.17728853 -2037.000000
28.81830215 118.33312225 1.17631865 -2034.000000
28.85006714 118.33359528 1.17535591 -2025.000000
28.84186554 118.32724762 1.17535210 -2023.000000
28.84701920 118.32905579 1.17584276 -2023.000000
28.85591888 118.33470154 1.17584705 -2025.000000
28.85015488 118.35119629 1.17730999 -2019.000000
28.84394836 118.35042572 1.17681980 -2030.000000
28.79196167 118.31583405 1.17533064 -2037.000000
28.77718735 118.33495331 1.17483759 -2039.000000
28.77272797 118.33246613 1.17483568 -2039.000000
28.79675674 118.31865692 1.17582083 -2037.000000
28.78902054 118.32822418 1.17826033 -2038.000000
28.79366684 118.36524200 1.17142820 -2034.000000
28.80389023 118.32670593 1.17533636 -2034.000000
28.80448151 118.33361816 1.17387199 -2027.000000
28.81501007 118.34586334 1.17338943 -2034.000000
28.80892563 118.33679199 1.17387390 -2032.000000
28.79017258 118.34412384 1.17533112 -2035.000000
28.79660797 118.35284424 1.17435741 -2035.000000
28.79286575 118.34898376 1.17484474 -2012.000000
28.79030228 118.33514404 1.17728424 -2036.000000
28.82602310 118.34808350 1.17436981 -2034.000000
28.82156372 118.34630585 1.17388010 -2032.000000
28.82273102 118.36150360 1.17144012 -2034.000000
28.83069992 118.35919952 1.17290735 -2034.000000
28.80807877 118.37165833 1.17241096 -2035.000000
28.82599258 118.37398529 1.17486048 -2036.000000
28.81555939 118.37935638 1.17192602 -2036.000000
28.81287003 118.37448883 1.17241287 -2034.000000
28.76496124 118.36860657 1.17190409 -2034.000000
28.75817490 118.36022949 1.17287683 -2039.000000
28.77597427 118.37084198 1.17337418 -2036.000000
28.80256653 118.37088776 1.17192030 -2031.000000
28.79636002 118.37010193 1.17094040 -2028.000000
28.79680634 118.38668060 1.17338371 -2028.000000
28.78157425 118.38922882 1.17044735 -2029.000000
28.77958679 118.38367462 1.17142344 -2037.000000
28.78742218 118.39103699 1.17142725 -2025.000000
28.80289841 118.39575195 1.17241001 -2036.000000
28.79739380 118.39429474 1.17191935 -2031.000000
28.99868011 118.30017090 1.17688227 -2031.000000
28.99209213 118.32563782 1.17639160 -2033.000000
28.96122742 118.26373291 1.17881680 -2020.000000
28.97658539 118.25219727 1.17784595 -2033.000000
28.96873856 118.24553680 1.17784214 -2039.000000
28.98033142 118.25605011 1.17784739 -2030.000000
28.98536301 118.26614380 1.17638540 -2029.000000
28.98267365 118.26126099 1.17687321 -2024.000000
28.95712662 118.26088715 1.17881489 -2029.000000
28.95266724 118.25842285 1.17832518 -2033.000000
28.97105026 118.27663422 1.17735720 -1993.000000
28.96800995 118.27210999 1.17784309 -2020.000000
28.96355820 118.26962280 1.17784119 -2018.000000
28.93753433 118.27856445 1.17734289 -2033.000000
28.95568848 118.28816223 1.17832804 -2036.000000
28.95052719 118.28704834 1.17783689 -2035.000000
28.95696259 118.29576874 1.17686462 -2030.000000
28.97253799 118.31740570 1.17491913 -2034.000000
28.98369980 118.28544617 1.17785072 -2034.000000
28.97854996 118.28365326 1.17736053 -2035.000000
28.97233200 118.28356171 1.17638111 -2029.000000
28.99212646 118.29972839 1.17590237 -2034.000000
28.98907471 118.29589844 1.17638874 -2034.000000
28.98532867 118.29204559 1.17638683 -2034.000000
28.96609879 118.30868530 1.17589188 -2038.000000
28.95894241 118.30202484 1.17637634 -2024.000000
28.97909927 118.31716156 1.17638588 -2034.000000
28.97054291 118.31185150 1.17589378 -2030.000000
28.98658752 118.32486725 1.17590141 -2036.000000
29.01097870 118.30932617 1.17688799 -2020.000000
29.00665665 118.29787445 1.17883825 -2033.000000
29.00723648 118.30547333 1.17737389 -2022.000000
29.02129745 118.31224060 1.17786789 -2008.000000
29.01647949 118.31079102 1.17737818 -2018.000000
28.98425293 118.31895447 1.17638779 -2034.000000
29.00650787 118.33205414 1.17737532 -2030.000000
28.99864960 118.32607269 1.17737150 -2024.000000
28.99959183 118.33264923 1.17590761 -2030.000000
28.91266251 118.30273438 1.17440367 -2034.000000
28.93563843 118.28993225 1.17490196 -2031.000000
28.93833923 118.29412079 1.17441416 -2030.000000
28.92332458 118.30599213 1.17538548 -2036.000000
28.92707443 118.30915070 1.17538738 -2035.000000
28.94195175 118.30695343 1.17783451 -2038.000000
28.92133331 118.30043793 1.17636013 -2034.000000
28.93362808 118.30958557 1.17636585 -2034.000000
28.96023941 118.30825043 1.17491341 -2030.000000
28.94615555 118.32669067 1.17490864 -2035.000000
28.94534683 118.31113434 1.17783594 -2035.000000
28.95998383 118.32550812 1.17686749 -2034.000000
28.94768906 118.31636047 1.17686176 -2038.000000
28.96301651 118.33073425 1.17637968 -2034.000000
28.95483017 118.32371521 1.17686510 -2037.000000
28.90584946 118.32024384 1.17537880 -2027.000000
28.90034866 118.31877899 1.17488861 -2031.000000
28.89483643 118.31800842 1.17439699 -2028.000000
28.91778946 118.33041382 1.17538452 -2029.000000
28.91299438 118.32759857 1.17489433 -2034.000000
28.91275787 118.32034302 1.17635775 -2034.000000
28.92540741 118.32846832 1.17685270 -2034.000000
28.93981552 118.33558655 1.17734718 -2039.000000
28.94004059 118.34352875 1.17588282 -2038.000000
28.94483566 118.34635925 1.17588520 -2040.000000
28.95058060 118.35507202 1.17539978 -2036.000000
28.98480225 118.35246277 1.17541409 -2027.000000
28.96863174 118.34842682 1.17394209 -2037.000000
28.98176193 118.34793091 1.17590094 -2031.000000
28.97800827 118.34476471 1.17589903 -2037.000000
28.96981049 118.33843231 1.17589521 -2037.000000
28.96571732 118.33491516 1.17589331 -2035.000000
28.98924637 118.35562134 1.17541599 -2024.000000
28.96379852 118.37218475 1.17394161 -2022.000000
28.94904327 118.36610413 1.17295790 -2037.000000
28.95617676 118.37415314 1.17198515 -2029.000000
28.95419312 118.36789703 1.17296028 -2033.000000
28.95069885 118.34677887 1.17686462 -2039.000000
28.93591309 118.36660767 1.17637014 -2036.000000
28.97199249 118.37851715 1.17394543 -2016.000000
28.96930695 118.37364197 1.17443180 -2033.000000
28.92637634 118.40513611 1.17246294 -2031.000000
28.87147903 118.35703278 1.17390156 -2027.000000
28.88520813 118.33893585 1.17439413 -2034.000000
28.90136719 118.34365845 1.17537832 -2030.000000
28.89212418 118.33833313 1.17537403 -2034.000000
28.88623810 118.36311340 1.17488527 -2036.000000
28.88532639 118.33064270 1.17585897 -2026.000000
28.88088226 118.32747650 1.17585707 -2024.000000
28.89727402 118.34013367 1.17586470 -2030.000000
28.86856461 118.34352875 1.17634058 -2030.000000
28.88389587 118.35790253 1.17585993 -2024.000000
28.90746307 118.35202026 1.17489338 -2039.000000
28.90018463 118.35365295 1.17342567 -2022.000000
28.93005753 118.36547852 1.17539167 -2039.000000
28.91411591 118.36939240 1.17245531 -2039.000000
28.91926956 118.37119293 1.17294550 -2038.000000
28.91187668 118.38109589 1.17538500 -2028.000000
28.86774063 118.35317993 1.17438745 -2024.000000
28.87839127 118.35644531 1.17536926 -2030.000000
28.85505295 118.37026215 1.17438316 -2012.000000
28.85342789 118.36367798 1.17535925 -2024.000000
28.84967422 118.36051941 1.17535734 -2018.000000
28.86840439 118.37839508 1.17487860 -2030.000000
28.85634232 118.37718964 1.17340851 -2022.000000
28.86289597 118.37762451 1.17389917 -2022.000000
28.89232254 118.37218475 1.17391109 -2031.000000
28.88926697 118.36833954 1.17439747 -2027.000000
28.90074158 118.38715363 1.17245102 -2036.000000
28.88972092 118.38492584 1.17098093 -2038.000000
