//X Y Z Scalar_field
979
17.27136612 130.50914001 1.14441347 -2013.000000
17.32495499 130.44606018 1.14456463 -2011.000000
17.32138062 130.44285583 1.14455366 -2021.000000
17.49218750 130.47654724 1.14457941 -2008.000000
17.38453674 130.37602234 1.14570999 -2003.000000
17.38717651 130.36520386 1.14669228 -2006.000000
17.28490448 130.35585022 1.20205069 -1966.000000
17.25310516 130.35559082 1.24150753 -2005.000000
17.23695755 130.36976624 1.24976206 -2003.000000
17.24781799 130.39973450 1.21610737 -1921.000000
17.23469543 130.41468811 1.22437000 -1924.000000
17.24544525 130.41360474 1.22537899 -2000.000000
17.23670197 130.39291382 1.22632694 -2011.000000
17.26947403 130.37397766 1.20981979 -1924.000000
17.26640701 130.35768127 1.22152805 -2013.000000
17.29121017 130.30693054 1.24942732 -1980.000000
17.30782318 130.30915833 1.21920252 -2016.000000
17.27880478 130.30072021 1.24890041 -2029.000000
17.28967285 130.31298828 1.23819208 -2027.000000
17.30689240 130.28814697 1.24165821 -2008.000000
17.43562698 130.31567383 1.14487696 -2011.000000
17.43732452 130.30635071 1.14634609 -2016.000000
17.36915207 130.26828003 1.23842287 -1985.000000
17.39625549 130.25346375 1.23166561 -2024.000000
17.36968994 130.21932983 1.24281263 -2016.000000
17.40002441 130.20095825 1.22629881 -2014.000000
17.53645706 130.40803528 1.12370586 -2027.000000
17.52374268 130.43940735 1.13002014 -2011.000000
17.53999329 130.44709778 1.14129972 -2024.000000
17.53801727 130.44963074 1.10955620 -2014.000000
17.54470825 130.44183350 1.10029697 -2003.000000
17.54091263 130.42745972 1.11200285 -2016.000000
17.50468063 130.38002014 1.11335325 -2016.000000
17.56771469 130.38706970 1.12819004 -2003.000000
17.56716156 130.39643860 1.10670567 -2011.000000
17.54122925 130.33633423 1.13103437 -2024.000000
17.54521179 130.33190918 1.10077238 -2014.000000
17.55621338 130.31838989 1.12375259 -2001.000000
17.63472366 130.30729675 1.12056684 -2004.000000
17.61306763 130.33303833 1.12685394 -2006.000000
17.62854385 130.29829407 1.12103558 -2030.000000
17.59792328 130.26924133 1.10043192 -2016.000000
17.64564514 130.30294800 1.11180973 -2022.000000
17.61771393 130.31117249 1.12930584 -2014.000000
17.58409119 130.28504944 1.11894798 -2014.000000
17.65958786 130.27796936 1.11526585 -1993.000000
17.54030609 130.44688416 1.18329287 -2027.000000
17.53606415 130.45150757 1.15105486 -2011.000000
17.53257751 130.45574951 1.16080999 -2019.000000
17.53620148 130.45196533 1.17205143 -1993.000000
17.55329132 130.43083191 1.23850584 -2029.000000
17.55131531 130.43336487 1.20676184 -2027.000000
17.56046295 130.42282104 1.21899509 -2027.000000
17.56068420 130.42218018 1.22924948 -2014.000000
17.53302383 130.45487976 1.24479675 -2032.000000
17.56265640 130.41964722 1.26099300 -1871.000000
17.49541473 130.31297302 1.14017200 -2027.000000
17.48258972 130.28555298 1.14110708 -2022.000000
17.47397614 130.31884766 1.13766766 -2014.000000
17.48040390 130.30097961 1.13963747 -2001.000000
17.46991730 130.27517700 1.14155579 -2022.000000
17.55800247 130.23890686 1.14181328 -2014.000000
17.52298355 130.26103210 1.13682890 -2022.000000
17.52299118 130.25032043 1.13780451 -2009.000000
17.57704163 130.18705750 1.13746881 -2011.000000
17.66667175 130.18756104 1.12455225 -2022.000000
17.61506271 130.17161560 1.14246321 -2017.000000
17.61366653 130.14335632 1.13464212 -2017.000000
17.53546524 130.19818115 1.14369345 -2022.000000
17.52484512 130.29389954 1.14416409 -2027.000000
17.50035858 130.23210144 1.14798880 -2027.000000
17.45847321 130.19993591 1.21035957 -1998.000000
17.43409729 130.22796631 1.21614981 -2016.000000
17.43907166 130.20327759 1.21860361 -1944.000000
17.43238068 130.21107483 1.22786140 -1970.000000
17.51087189 130.15080261 1.19830179 -2009.000000
17.47509003 130.17965698 1.20308256 -1996.000000
17.42572021 130.20225525 1.23858213 -1967.000000
17.45356750 130.18661499 1.21083164 -1988.000000
17.44055939 130.17317200 1.22153282 -2016.000000
17.45103836 130.17274475 1.23328304 -1957.000000
17.43980789 130.15476990 1.22348213 -2009.000000
17.41316605 130.16828918 1.24049330 -2024.000000
17.50603485 130.12458801 1.21097946 -1983.000000
17.46947861 130.15057373 1.22601080 -1970.000000
17.56931686 130.18299866 1.14769983 -2030.000000
17.60180664 130.23049927 1.15659189 -2017.000000
17.65679169 130.16572571 1.15723467 -2004.000000
17.61474991 130.15303040 1.14441299 -2032.000000
17.52377701 130.13539124 1.19052505 -1993.000000
17.53097153 130.11450195 1.20323992 -1996.000000
17.56513977 130.12490845 1.17404556 -2011.000000
17.57081985 130.09826660 1.18773174 -2019.000000
17.59277344 130.09220886 1.16924095 -2006.000000
17.62445831 130.09353638 1.15078068 -2014.000000
17.57116699 130.07991028 1.18919516 -1986.000000
17.58645248 130.08056641 1.17996264 -2006.000000
17.56087112 130.07969666 1.19844103 -1971.000000
17.59463882 130.05227661 1.18340111 -1963.000000
17.57472229 130.06280518 1.19115639 -1976.000000
17.50742340 130.10627747 1.22318745 -2014.000000
17.50562286 130.09745789 1.22367048 -2004.000000
17.50605011 130.07693481 1.22562218 -2022.000000
17.58355331 130.01705933 1.22730970 -2017.000000
17.56285095 130.05792236 1.21162844 -2014.000000
17.58632278 130.00297546 1.22877979 -2014.000000
18.01753235 130.68132019 1.26238394 -2024.000000
18.10939789 130.86071777 1.17967367 -2024.000000
18.09980774 130.83343506 1.19233608 -2014.000000
18.03847122 130.85923767 1.23659134 -2008.000000
18.00344086 130.88244629 1.22135258 -2014.000000
17.98445511 130.86634827 1.22129393 -2029.000000
18.01642227 130.85525513 1.21455193 -2001.000000
18.03633118 130.85916138 1.22633076 -2021.000000
18.08060455 130.82540894 1.22255182 -2019.000000
18.05515289 130.80793762 1.21173191 -1977.000000
18.05916214 130.77400208 1.22589922 -2011.000000
18.06280136 130.75952148 1.23811531 -2019.000000
18.14748383 130.81315613 1.17685032 -2024.000000
18.13078690 130.81529236 1.17533684 -2016.000000
18.17803955 130.80003357 1.15985107 -2016.000000
18.17026138 130.76605225 1.17300606 -2011.000000
18.16529465 130.75271606 1.19496202 -2004.000000
18.13556671 130.79757690 1.21929407 -2014.000000
18.12217331 130.75592041 1.24268579 -2001.000000
18.08807373 130.77763367 1.22793913 -2024.000000
18.09644699 130.75679016 1.20989513 -2001.000000
18.18791580 130.73291016 1.21895361 -2027.000000
18.14125824 130.72918701 1.23639202 -2014.000000
18.16178894 130.72480774 1.22815132 -2009.000000
18.09563065 130.72877502 1.22258377 -2014.000000
18.15066528 130.65112305 1.24471045 -2009.000000
18.15326309 130.65800476 1.22372198 -1996.000000
17.84146881 130.45310974 1.24913359 -1991.000000
17.84762955 130.46319580 1.23841000 -1994.000000
17.82913589 130.50897217 1.22175980 -2014.000000
17.83057022 130.48367310 1.24519777 -2017.000000
17.80883789 130.44844055 1.26758957 -2006.000000
18.29862213 130.74176025 1.13334608 -2027.000000
18.36760330 130.65573120 1.13695812 -2019.000000
18.21375275 130.69248962 1.19412136 -1970.000000
18.30673981 130.76374817 1.17341232 -2019.000000
18.26566315 130.62802124 1.19426727 -2014.000000
18.18099976 130.68299866 1.24382830 -1986.000000
18.19939041 130.65711975 1.23753119 -2001.000000
18.22224426 130.64956665 1.22978640 -2014.000000
18.19125748 130.63885498 1.21797371 -2017.000000
18.19093323 130.65020752 1.23799419 -2024.000000
18.22920990 130.62341309 1.24298668 -1991.000000
18.25173950 130.59246826 1.23767853 -2009.000000
18.20854950 130.57969666 1.24584913 -1994.000000
18.20311356 130.59608459 1.22288609 -1991.000000
18.36484909 130.72862244 1.17113924 -2012.000000
18.37020874 130.72140503 1.16187668 -2004.000000
18.34364319 130.71832275 1.17058611 -2009.000000
18.42446518 130.65377808 1.15226412 -2022.000000
18.38475418 130.70367432 1.15459394 -2001.000000
18.39629364 130.65193176 1.17122269 -2014.000000
18.34577942 130.75205994 1.21942663 -2022.000000
18.35266113 130.74360657 1.23116350 -2022.000000
18.41724396 130.65631104 1.26552486 -2030.000000
18.38468552 130.69711304 1.26933908 -2027.000000
18.31588364 130.60392761 1.19002008 -2022.000000
18.27597809 130.58320618 1.22993755 -2014.000000
18.27075195 130.57164001 1.24115038 -1979.000000
18.24855804 130.53987122 1.22203684 -2007.000000
18.29866791 130.53718567 1.23634577 -1981.000000
18.28231430 130.52687073 1.22604275 -2025.000000
18.29105377 130.52615356 1.23681116 -2009.000000
18.25666428 130.56884766 1.24062014 -2007.000000
18.25305176 130.52497864 1.24450970 -1997.000000
18.32424164 130.56318665 1.23593807 -2017.000000
18.36623383 130.51119995 1.23410273 -1989.000000
18.30686188 130.52441406 1.23832273 -2004.000000
18.34333801 130.49952698 1.23305607 -2025.000000
18.32924652 130.49673462 1.23252583 -2020.000000
18.34204102 130.48352051 1.23500395 -1999.000000
18.16761398 130.54452515 1.25646448 -2032.000000
18.28077316 130.49009705 1.23970413 -1997.000000
18.31714630 130.42935181 1.26910162 -2005.000000
18.29286575 130.48471069 1.22069645 -2017.000000
18.33279800 130.47482300 1.23497534 -2012.000000
18.32414627 130.43641663 1.23787308 -1997.000000
17.84213257 130.41751099 1.24180555 -2014.000000
17.83532715 130.41677856 1.26229334 -1991.000000
17.89240265 130.39123535 1.24878740 -2027.000000
17.87682343 130.36607361 1.26045704 -2014.000000
17.89331818 130.34426880 1.24292517 -1991.000000
17.91008377 130.33514404 1.24492693 -2001.000000
17.91867828 130.36392212 1.25374556 -2025.000000
17.96443176 130.27014160 1.24507999 -2012.000000
17.93363953 130.29571533 1.24059772 -2012.000000
17.70236969 130.14537048 1.11098051 -2027.000000
17.71990204 130.20599365 1.11690092 -2022.000000
17.70816040 130.20375061 1.12663078 -2019.000000
17.77743530 130.13740540 1.11803961 -2024.000000
17.73742676 130.16871643 1.12182999 -2007.000000
17.72535706 130.11793518 1.12618256 -2014.000000
17.72309113 130.12112427 1.10469198 -1989.000000
17.80714035 130.10217285 1.11372900 -2027.000000
17.82260132 130.06741333 1.11816454 -2022.000000
17.77121735 130.06370544 1.10433817 -2025.000000
17.78528595 130.11195374 1.12098885 -2014.000000
17.76977921 130.06538391 1.12435436 -2027.000000
17.86997223 130.02746582 1.11585855 -2027.000000
17.85741425 130.00791931 1.13730335 -2027.000000
17.69685745 130.11781311 1.15490675 -2001.000000
17.66987228 130.14486694 1.17045450 -2022.000000
17.70970535 130.09759521 1.16812515 -2027.000000
17.61547089 130.04617310 1.17565060 -1989.000000
17.66944122 130.03271484 1.15041876 -2014.000000
17.63970184 130.10009766 1.15131617 -2024.000000
17.63125229 130.07765198 1.15275192 -2022.000000
17.62683105 130.05824280 1.15469027 -2024.000000
17.62569427 130.05339050 1.16542721 -2012.000000
17.60323715 130.02969360 1.18635368 -2025.000000
17.66087723 130.01837158 1.15087891 -2025.000000
17.64171600 130.01515198 1.17035341 -1994.000000
17.65376282 130.02047729 1.16013622 -1999.000000
17.64413071 129.99427795 1.17231083 -2012.000000
17.62409973 130.01768494 1.17909002 -2019.000000
17.72019958 130.04690552 1.15301275 -2022.000000
17.68859100 130.06588745 1.14852715 -2022.000000
17.67831039 130.02981567 1.15093231 -2014.000000
17.70298004 130.02519226 1.15344715 -1992.000000
17.74423981 130.06234741 1.15357494 -2022.000000
17.71070480 130.02923584 1.14370489 -2022.000000
17.70121765 129.99494934 1.14611387 -2030.000000
17.69378662 129.97364807 1.15780687 -2014.000000
17.69057083 129.98313904 1.14656830 -2020.000000
17.68933868 129.95904541 1.16951036 -1999.000000
17.62104034 129.98957825 1.21276855 -2020.000000
17.88079834 130.07162476 1.25749874 -2004.000000
17.76475143 129.97557068 1.15362453 -2015.000000
17.75525284 130.04402161 1.16678810 -2022.000000
17.76016617 130.01559448 1.16972923 -2012.000000
17.73633957 129.98617554 1.14963531 -1999.000000
17.72040558 129.98046875 1.14909840 -2014.000000
17.81670380 129.97099304 1.16842651 -2015.000000
17.81418228 129.97962952 1.15719080 -2017.000000
17.81655121 129.93360901 1.16207457 -1992.000000
17.82709503 129.93690491 1.17235899 -2005.000000
17.79811859 129.92584229 1.15078735 -2020.000000
18.06056213 130.14569092 1.26488066 -2005.000000
17.99254608 130.23614502 1.24027586 -1999.000000
18.04010773 130.31378174 1.26777267 -2025.000000
18.05977631 130.29057312 1.23022938 -2004.000000
18.04779434 130.30448914 1.23849726 -2017.000000
18.04149246 130.26290894 1.23114824 -2027.000000
18.10610199 130.25691223 1.26844931 -1987.000000
18.06716156 130.27230835 1.21218300 -2004.000000
18.08330536 130.26184082 1.22443676 -1992.000000
18.06385803 130.28549194 1.25172663 -2025.000000
18.06728363 130.28128052 1.26296616 -2009.000000
18.08915710 130.20570374 1.23030567 -2025.000000
18.14832687 130.20536804 1.25636101 -2005.000000
18.12065506 130.23916626 1.26116657 -1974.000000
18.11443329 130.22383118 1.22061872 -1974.000000
18.11556244 130.21316528 1.21134233 -1992.000000
18.14852905 130.18286133 1.21680737 -1995.000000
18.15011215 130.17201233 1.20753384 -1992.000000
18.08365631 130.11717224 1.25957489 -2012.000000
18.10387421 130.17660522 1.25475979 -2027.000000
18.12350082 130.16410828 1.22698450 -2022.000000
18.07364655 130.13772583 1.24587536 -2010.000000
18.15801620 130.11114502 1.25540161 -2010.000000
18.15039063 130.14884949 1.22022629 -2015.000000
18.18241882 130.11042786 1.21641064 -1985.000000
18.12036896 130.08200073 1.24454308 -2015.000000
18.11390305 130.07846069 1.26551962 -2030.000000
18.11680984 130.07771301 1.25576210 -2027.000000
17.90157700 129.95602417 1.13596249 -2027.000000
17.88034058 129.99926758 1.11930370 -2020.000000
17.86410522 129.95355225 1.13292170 -2027.000000
17.89671326 129.97964478 1.11251402 -2017.000000
17.94942474 129.91696167 1.11315060 -2025.000000
17.92865753 129.95782471 1.11748934 -2027.000000
17.93725204 129.91381836 1.13264513 -2017.000000
17.93704605 129.86682129 1.13752127 -2027.000000
17.99621964 129.84353638 1.12402201 -2017.000000
17.96260834 129.88320923 1.12783432 -2017.000000
18.00948334 129.84562683 1.11478472 -2027.000000
17.93471909 130.00682068 1.24739695 -2027.000000
17.89371109 130.05622864 1.24972296 -2022.000000
17.88394547 129.89648438 1.15055084 -1975.000000
17.87374878 129.90370178 1.16956425 -2005.000000
17.85859680 129.92709351 1.15585089 -2002.000000
17.87382126 129.88119507 1.17151451 -2005.000000
17.93633270 129.89869690 1.14435959 -2030.000000
17.97335815 129.96168518 1.24457645 -2017.000000
18.00651550 129.81535339 1.14846325 -2013.000000
18.02964401 129.89479065 1.20420694 -2005.000000
18.06065369 129.85740662 1.15937328 -1993.000000
18.05326843 129.86607361 1.16814137 -1943.000000
18.03727722 129.88549805 1.19543934 -1983.000000
18.00429535 129.92431641 1.21976042 -2025.000000
17.99042511 129.94120789 1.23778868 -2015.000000
18.01514435 129.91143799 1.21197891 -2015.000000
18.00679016 129.92156982 1.23051071 -2010.000000
18.01951218 129.91532898 1.23201180 -2027.000000
19.35311127 131.24153137 1.08479738 -2022.000000
18.91128159 131.44834900 1.25831509 -2027.000000
18.87872696 131.50096130 1.24064684 -2016.000000
18.89035416 131.48506165 1.23237848 -2014.000000
18.93989182 131.42005920 1.23202896 -2022.000000
18.96939468 131.37147522 1.25994253 -2027.000000
18.96885681 131.35243225 1.27214575 -2017.000000
19.08255768 131.42260742 1.13870382 -2029.000000
19.10597992 131.39126587 1.13339901 -2027.000000
19.20113754 131.46369934 1.10195255 -2029.000000
19.24109650 131.40945435 1.07960320 -1999.000000
19.22593307 131.43066406 1.09665108 -2014.000000
19.24777222 131.40054321 1.09134150 -2009.000000
19.20879745 131.25421143 1.14491701 -2017.000000
19.19995117 131.28334045 1.13073397 -2030.000000
19.20155334 131.28100586 1.14148092 -2030.000000
19.08455276 131.39012146 1.15237808 -2019.000000
19.08164215 131.42300415 1.14895582 -2029.000000
19.07802582 131.37324524 1.16407442 -2014.000000
19.13352585 131.31678772 1.16374397 -2024.000000
19.11380386 131.34329224 1.17003632 -2024.000000
19.12853622 131.30566406 1.16470480 -2006.000000
19.04584885 131.26980591 1.25478601 -2027.000000
19.03446579 131.28506470 1.26305485 -1999.000000
18.54676819 130.80801392 1.26104832 -2030.000000
18.57659912 130.90327454 1.26456833 -2027.000000
18.58955765 130.88676453 1.25679255 -2017.000000
18.58133698 130.89801025 1.21331215 -2004.000000
18.59009171 130.88656616 1.22554350 -2009.000000
18.63517380 130.82946777 1.21395111 -2007.000000
18.61272049 130.83792114 1.22169733 -2022.000000
18.69461060 130.75309753 1.20581675 -1954.000000
18.68693161 130.76347351 1.21409607 -1986.000000
18.70911026 130.68179321 1.24491358 -2027.000000
18.70297623 130.70864868 1.23122644 -2027.000000
18.68009567 130.73760986 1.23702192 -2014.000000
18.69610977 130.73152161 1.22876740 -2027.000000
19.05998993 130.84727478 1.20496511 -2012.000000
19.02626419 130.89129639 1.18778086 -1944.000000
19.04666138 130.86506653 1.17123652 -2027.000000
19.02006912 130.89889526 1.17604399 -2017.000000
18.75881195 130.67189026 1.20843887 -2010.000000
18.74285126 130.63887024 1.24110126 -2027.000000
18.76121902 130.69319153 1.26850796 -1992.000000
18.75611115 130.64096069 1.23186398 -2030.000000
18.76910400 130.68324280 1.25974083 -1894.000000
18.78551102 130.66253662 1.25295067 -2017.000000
18.77096176 130.63589478 1.23337269 -1990.000000
18.79039001 130.65661621 1.24368715 -2027.000000
18.79252243 130.57540894 1.24124050 -2017.000000
18.79177094 130.60946655 1.22757196 -1995.000000
18.85305786 130.55152893 1.21749258 -2027.000000
18.83486176 130.54090881 1.23794413 -2018.000000
18.84630585 130.54008484 1.22870111 -2025.000000
18.90129089 130.51489258 1.24595165 -2010.000000
18.90433884 130.51086426 1.23619366 -2008.000000
18.88349915 130.53729248 1.25224972 -2023.000000
19.36644745 131.24143982 1.08581400 -2027.000000
19.35584259 131.23814392 1.09554720 -2025.000000
19.29185486 131.34123230 1.08023405 -2012.000000
19.34040070 131.31727600 1.11748505 -2019.000000
19.37780380 131.26683044 1.09464025 -2027.000000
19.34462357 131.31111145 1.10821962 -2002.000000
19.34777069 131.28829956 1.11066723 -2030.000000
19.36341095 131.28611755 1.10192442 -1999.000000
19.36353683 131.26733398 1.10387468 -1971.000000
19.37537003 131.25187683 1.09609604 -1931.000000
19.41389847 131.20040894 1.07325459 -1989.000000
19.39491272 131.22494507 1.07954884 -1959.000000
19.39311981 131.20541382 1.08149338 -2020.000000
19.45965576 131.15687561 1.08168507 -2025.000000
19.42715073 131.18215942 1.06596661 -2022.000000
19.38699341 131.23597717 1.08831549 -1941.000000
19.47269440 131.15043640 1.12469292 -2027.000000
19.44501495 131.17680359 1.08896971 -2025.000000
19.47183228 131.15083313 1.11394787 -2030.000000
19.33412170 131.33602905 1.19803619 -2007.000000
19.27298355 131.16819763 1.14851427 -2022.000000
19.53959656 131.29577637 1.24844742 -2020.000000
19.31583786 131.11099243 1.14716911 -2022.000000
19.21874237 130.97509766 1.26649141 -2010.000000
19.31408691 131.08447266 1.15985632 -2017.000000
19.36296463 131.01924133 1.16048098 -2032.000000
19.49400711 131.11047363 1.06859827 -1950.000000
19.50352097 131.09820557 1.06032419 -1980.000000
19.48445129 131.12384033 1.07687283 -1990.000000
19.53807831 131.05113220 1.05798006 -2027.000000
19.62607956 131.19387817 1.25503922 -2020.000000
19.64093018 131.15779114 1.25996161 -2020.000000
19.68477631 131.24465942 1.22397041 -2015.000000
19.60011292 130.97836304 1.08110332 -1787.000000
19.62862778 130.94046021 1.07678843 -1936.000000
19.65090179 130.93527222 1.07929611 -1976.000000
19.60788345 130.99354553 1.12068033 -1995.000000
19.56134033 131.03048706 1.10296726 -2018.000000
19.59309769 130.98791504 1.09963799 -2018.000000
19.59475708 130.98556519 1.08987761 -1958.000000
19.64527130 130.94313049 1.09832382 -1995.000000
19.62018967 130.97682190 1.11338949 -1998.000000
19.63038635 130.96369934 1.10511827 -1990.000000
19.65038300 130.93656921 1.08905935 -1988.000000
19.42417526 130.93025208 1.17432308 -2025.000000
19.57582855 130.78259277 1.16059542 -1986.000000
19.11281586 130.80863953 1.19242239 -1972.000000
19.11353302 130.80780029 1.18216991 -2007.000000
19.09313583 130.83403015 1.19871378 -1985.000000
19.08576584 130.81382751 1.16939306 -2030.000000
19.14849472 130.76162720 1.17933798 -2018.000000
19.12834930 130.75837708 1.16804743 -2027.000000
19.10580063 130.81709290 1.22169971 -2012.000000
19.11042786 130.81181335 1.21243429 -1987.000000
19.44780731 130.76383972 1.26421595 -2001.000000
19.27393723 130.46031189 1.21971035 -2018.000000
19.23420715 130.53271484 1.19958258 -2030.000000
19.28403091 130.58532715 1.18801880 -1996.000000
19.27960205 130.59103394 1.19679546 -2018.000000
19.25456238 130.50648499 1.19377947 -2033.000000
19.28551483 130.44551086 1.21193075 -2020.000000
19.30010986 130.42666626 1.20513535 -2023.000000
19.36485291 130.36340332 1.20678520 -2028.000000
19.37292862 130.33248901 1.21022272 -2028.000000
18.92238617 130.48780823 1.22940874 -2005.000000
18.42923355 130.57835388 1.13957214 -2009.000000
18.49293137 130.49844360 1.14219284 -2017.000000
18.46606064 130.56504822 1.14407539 -2012.000000
18.51670456 130.46907043 1.13688898 -2027.000000
18.54476929 130.50303650 1.13600063 -1931.000000
18.53413391 130.51635742 1.14378357 -1974.000000
18.51293945 130.50607300 1.14322996 -1997.000000
18.53073502 130.48365784 1.13644457 -1974.000000
18.57894516 130.42405701 1.13609171 -2015.000000
18.53585815 130.42944336 1.14231157 -2027.000000
18.44575119 130.59019470 1.14987707 -1997.000000
18.42144394 130.62086487 1.16592264 -2014.000000
18.43416214 130.60501099 1.15814590 -2017.000000
18.50296402 130.55548096 1.14760160 -1961.000000
18.47711945 130.58737183 1.15290022 -1976.000000
18.44892120 130.61700439 1.24071169 -1984.000000
18.44795609 130.61848450 1.25096321 -1887.000000
18.43594360 130.63349915 1.25874138 -1981.000000
18.39511490 130.47528076 1.21904659 -2020.000000
18.38610077 130.48625183 1.22781038 -2002.000000
18.50848389 130.54216003 1.24234390 -2030.000000
18.50234985 130.45141602 1.14758587 -2030.000000
18.58132553 130.45126343 1.19567299 -1967.000000
18.56792068 130.46797180 1.20295906 -1949.000000
18.59899139 130.45135498 1.20695591 -2015.000000
18.60002136 130.42845154 1.18888998 -1940.000000
18.56306076 130.41136169 1.14629650 -2015.000000
18.54148865 130.50115967 1.23852921 -1995.000000
18.54870605 130.49205017 1.21950674 -1939.000000
18.55728149 130.48127747 1.21123075 -1954.000000
18.54798126 130.49290466 1.22975922 -1977.000000
18.34229279 130.39828491 1.26380157 -1992.000000
18.36934662 130.38085938 1.23653555 -2002.000000
18.35061646 130.47273254 1.22623873 -2020.000000
18.34137726 130.45332336 1.22767258 -2020.000000
18.35657120 130.44543457 1.22918224 -2025.000000
18.35351181 130.40991211 1.22233200 -2004.000000
18.41140747 130.44711304 1.21323252 -2020.000000
18.40112305 130.32536316 1.26494360 -2017.000000
18.55474091 130.38566589 1.14822102 -2017.000000
18.45680237 130.35876465 1.24558306 -2007.000000
18.42539978 130.31132507 1.23766994 -1992.000000
18.44537735 130.32485962 1.23821926 -2027.000000
18.43212509 130.31314087 1.22792387 -2012.000000
18.49935150 130.34614563 1.23008299 -2022.000000
18.50363159 130.30087280 1.24473763 -2003.000000
18.51104736 130.32325745 1.22327852 -2020.000000
18.45740128 130.25628662 1.25582409 -2007.000000
18.43180847 130.28755188 1.26112413 -2015.000000
18.45560074 130.27479553 1.23335981 -1990.000000
18.50360870 130.21475220 1.23300695 -2015.000000
18.61054993 130.42059326 1.13911486 -2012.000000
18.58708191 130.38134766 1.14099264 -2032.000000
18.61105728 130.38345337 1.13276339 -2020.000000
18.59700012 130.36886597 1.14297390 -1998.000000
18.66453934 130.35359192 1.14024258 -2023.000000
18.64450836 130.39405823 1.19585371 -2030.000000
18.60943985 130.43759155 1.19917297 -2017.000000
18.60237122 130.42527771 1.17913008 -1985.000000
18.62870026 130.39207458 1.17432117 -2005.000000
18.63796997 130.38044739 1.16604614 -1995.000000
18.67052460 130.33964539 1.16223192 -2005.000000
18.82118225 130.53903198 1.23692703 -2010.000000
18.87286377 130.45750427 1.25904322 -2025.000000
18.87714767 130.48719788 1.23610973 -2028.000000
18.89641571 130.47642517 1.22835350 -2028.000000
18.88562012 130.45718384 1.23954868 -2030.000000
18.70130539 130.32258606 1.19747734 -2028.000000
18.59122849 130.36076355 1.14344311 -2022.000000
18.66898346 130.31094360 1.13487911 -2023.000000
18.64595032 130.30734253 1.14311123 -2005.000000
18.68492508 130.25938416 1.14077950 -2000.000000
18.73357010 130.26647949 1.14434385 -2023.000000
18.71906281 130.24838257 1.13501978 -2020.000000
18.73843765 130.25466919 1.14582157 -2010.000000
18.77487183 130.21533203 1.14250708 -2028.000000
18.72093201 130.21435547 1.13795090 -2025.000000
18.75809479 130.19932556 1.13268852 -2030.000000
18.73943329 130.19110107 1.13165474 -2030.000000
18.60465622 130.30122375 1.15080070 -2023.000000
18.57786560 130.33462524 1.15511942 -2022.000000
18.57877731 130.33312988 1.16586304 -2027.000000
18.66252899 130.27154541 1.14803886 -2028.000000
18.61933899 130.30534363 1.15133286 -2013.000000
18.65466309 130.26116943 1.14850187 -2028.000000
18.58240509 130.24258423 1.23666382 -2015.000000
18.51484680 130.18507385 1.25696230 -2005.000000
18.54907608 130.24465942 1.24388838 -1990.000000
18.61367798 130.16435242 1.24651194 -1986.000000
18.61264801 130.20495605 1.23235464 -2008.000000
18.62545013 130.18101501 1.23629522 -2025.000000
18.57172012 130.16868591 1.25322390 -2020.000000
18.54647446 130.14575195 1.25314569 -1973.000000
18.57323456 130.13859558 1.24638796 -2020.000000
18.56584167 130.12210083 1.24685192 -1919.000000
18.69619370 130.24522400 1.15350676 -2030.000000
18.73130417 130.28561401 1.19316721 -2010.000000
18.70791626 130.29293823 1.15989637 -1995.000000
18.71787643 130.28045654 1.15162277 -1963.000000
18.67271423 130.21669006 1.15440989 -2030.000000
18.76897430 130.23825073 1.18057823 -1996.000000
18.74633789 130.26658630 1.18637371 -1986.000000
18.72234344 130.15432739 1.15454912 -2025.000000
18.74048233 130.15420532 1.15606737 -2033.000000
18.61765671 130.11119080 1.25237608 -2028.000000
18.66906738 130.12669373 1.23495293 -2005.000000
18.66464996 130.10137939 1.24665499 -2008.000000
18.68988037 130.10987854 1.23794270 -1986.000000
18.71577072 130.07687378 1.23313236 -1981.000000
18.71520996 130.06964111 1.23410559 -2015.000000
18.19418335 130.06765747 1.25208521 -1992.000000
18.20847321 130.07897949 1.21111298 -1972.000000
18.19807816 130.12268066 1.21645927 -2025.000000
18.20473862 130.10525513 1.20866442 -2012.000000
18.20182800 130.06907654 1.23257589 -2015.000000
18.27023697 130.05711365 1.25963449 -2015.000000
18.25724411 130.04214478 1.20881224 -2015.000000
18.24645233 130.08648682 1.26542616 -2010.000000
18.24002075 130.01232910 1.25123739 -2000.000000
18.24833298 130.03060913 1.20927191 -2000.000000
18.22901154 130.03656006 1.22728157 -1988.000000
18.27778244 130.02595520 1.22205400 -2030.000000
18.25738144 130.00192261 1.22296715 -1990.000000
18.32256317 129.99354553 1.25001526 -1993.000000
18.31167603 130.00750732 1.25779772 -2008.000000
18.31100464 129.95437622 1.21140146 -2015.000000
18.33661652 129.97709656 1.24224281 -1995.000000
18.32915115 129.95426941 1.21292067 -2018.000000
18.34470367 129.96759033 1.23396492 -1998.000000
18.33814240 129.95289612 1.22417736 -2025.000000
18.09380722 129.81796265 1.15555954 -2005.000000
18.18408203 129.99620056 1.25839233 -2020.000000
18.22579956 129.94595337 1.24630260 -2003.000000
18.21548843 129.96714783 1.25311089 -1998.000000
18.21516418 129.95925903 1.25457430 -1973.000000
18.24197388 129.93548584 1.24830246 -1998.000000
18.12628174 129.77934265 1.15174532 -1998.000000
18.11172485 129.76603699 1.16244221 -2015.000000
18.07973480 129.84336853 1.26440907 -2003.000000
18.28348160 129.88479614 1.24646616 -2013.000000
18.30529022 129.94407654 1.22212505 -2028.000000
18.33493805 129.89703369 1.25980520 -2028.000000
18.31888580 129.89350891 1.26903391 -2023.000000
18.37997818 129.92451477 1.23064613 -2025.000000
18.62531281 130.06495667 1.24750900 -1991.000000
18.61360550 130.06271362 1.24649811 -1983.000000
18.67829132 130.04710388 1.25352478 -2025.000000
18.64820862 130.04560852 1.25099277 -2025.000000
18.66976929 130.04716492 1.25252247 -2023.000000
18.69307709 130.02871704 1.24624205 -2008.000000
18.69362259 130.04556274 1.26480055 -2006.000000
18.66132736 130.00440979 1.24614429 -2006.000000
18.62794495 129.93962097 1.26996136 -1962.000000
18.40795517 129.89750671 1.24586296 -2030.000000
18.39894485 129.90849304 1.25413847 -2001.000000
18.39822006 129.90933228 1.26390171 -1949.000000
18.38239288 129.89881897 1.22283792 -2015.000000
18.38787460 129.88352966 1.21455097 -2015.000000
18.36676788 129.88658142 1.21253538 -2006.000000
18.44182205 129.76780701 1.26059484 -2023.000000
18.41469574 129.82872009 1.21218109 -1996.000000
18.40435028 129.82369995 1.23217010 -2016.000000
18.43743134 129.82334900 1.21469021 -1996.000000
18.43889618 129.78253174 1.22884941 -1994.000000
18.40635300 129.81044006 1.26391268 -2021.000000
18.47348022 129.74029541 1.22552872 -2011.000000
18.47798157 129.77415466 1.21236229 -2028.000000
18.46883392 129.76327515 1.21282291 -1999.000000
18.51650238 129.76594543 1.23737955 -2026.000000
18.52062607 129.67257690 1.25642252 -2006.000000
18.49803925 129.69981384 1.26172924 -2006.000000
18.53747177 129.68005371 1.21643400 -2021.000000
18.91817093 130.44850159 1.22255468 -2030.000000
18.94754791 130.37806702 1.24216509 -2028.000000
18.94076538 130.37142944 1.26265192 -2018.000000
18.96610260 130.37402344 1.23391819 -2016.000000
18.96856308 130.35206604 1.23636389 -2028.000000
19.06616592 130.30462646 1.20881557 -2001.000000
19.02803802 130.35327148 1.21066189 -2006.000000
19.00997925 130.37632751 1.21695948 -2008.000000
18.99837112 130.39114380 1.23499298 -2020.000000
19.02081299 130.36236572 1.22968483 -2025.000000
19.07907867 130.29446411 1.27135324 -1994.000000
18.98816681 130.31115723 1.25204182 -2028.000000
18.97199249 130.33123779 1.25932169 -2028.000000
19.03947449 130.24534607 1.25267506 -2021.000000
18.82682800 130.16529846 1.14167786 -1993.000000
18.78343201 130.19865417 1.14497089 -2028.000000
18.85104370 130.13572693 1.13686323 -2016.000000
18.82405853 130.15316772 1.14313269 -2028.000000
18.81290054 130.18328857 1.15921688 -1929.000000
18.78582764 130.21733093 1.17378950 -1978.000000
18.81939316 130.17504883 1.15044641 -1870.000000
18.79489899 130.20526123 1.16600180 -1959.000000
18.87476730 130.12339783 1.20089722 -2016.000000
18.79922104 130.21768188 1.22607613 -2033.000000
18.81099701 130.20330811 1.21829605 -2016.000000
18.85993958 130.14178467 1.21794558 -1979.000000
18.87128067 130.12763977 1.21016407 -1905.000000
18.77054596 130.08293152 1.17616701 -2030.000000
18.80186462 130.07746887 1.15868139 -2028.000000
18.82426453 130.08454895 1.16997910 -2028.000000
18.83601379 130.05465698 1.17391729 -2028.000000
18.78926086 130.07081604 1.15864325 -2023.000000
18.88055420 130.11599731 1.19163656 -2021.000000
18.84067535 129.99584961 1.18026972 -2023.000000
18.90206146 130.08871460 1.18632555 -2018.000000
18.86739349 129.99566650 1.16228390 -2026.000000
18.86071777 130.03932190 1.16715288 -2028.000000
18.85868835 129.98460388 1.16274452 -2023.000000
18.92860413 130.05596924 1.18151712 -2011.000000
18.93672943 130.04539490 1.17323875 -2011.000000
18.96216202 130.01367188 1.15817356 -1994.000000
18.96050262 130.01600647 1.16793442 -2013.000000
18.92744064 130.05854797 1.24157238 -2006.000000
18.94734192 130.03358459 1.22600317 -2031.000000
18.93550110 130.04795837 1.25380230 -1972.000000
19.09301758 130.27647400 1.25430250 -1957.000000
19.09235382 130.27732849 1.24355841 -1935.000000
19.09436035 130.27478027 1.26456022 -1915.000000
19.09748840 130.27076721 1.22452974 -1962.000000
19.09144592 130.27880859 1.23330212 -1942.000000
19.12176514 130.24009705 1.21922731 -2016.000000
19.15394592 130.19250488 1.21687508 -2026.000000
19.13515854 130.19236755 1.21486664 -2028.000000
19.20262909 130.13644409 1.22629023 -2026.000000
19.19163132 130.14405823 1.21453905 -2026.000000
19.21001053 130.09675598 1.22093534 -2031.000000
19.22896576 130.10324097 1.22197008 -2019.000000
19.00539398 129.95956421 1.13729906 -2011.000000
18.98389435 129.98684692 1.14260960 -1934.000000
18.97600555 129.99679565 1.15137672 -1980.000000
19.05012512 129.90463257 1.20676136 -2019.000000
19.02310181 129.93867493 1.21108007 -2028.000000
19.25376129 130.06538391 1.21764374 -2023.000000
19.06284332 129.88877869 1.19947243 -2007.000000
18.75016785 129.87683105 1.26592255 -1994.000000
18.71506500 129.96319580 1.25459862 -2013.000000
18.71711349 129.95104980 1.25558043 -1991.000000
18.72342300 130.00814819 1.26097775 -1996.000000
18.71541977 130.03796387 1.24679804 -2008.000000
18.71917725 129.99617004 1.24143267 -2001.000000
18.78342056 129.95451355 1.25089550 -1989.000000
18.76718903 130.01371765 1.23327684 -2008.000000
18.78463745 129.98341370 1.23820829 -2025.000000
18.75721741 129.96891785 1.25716734 -2030.000000
18.78406143 129.93333435 1.26310158 -2011.000000
18.74057770 129.95925903 1.25711679 -2011.000000
18.74225998 129.90447998 1.25223112 -2018.000000
18.72155380 129.91210938 1.27023649 -1962.000000
18.86192322 129.96920776 1.17495871 -2023.000000
18.90523529 129.94876099 1.15994835 -2021.000000
18.88226318 129.95477295 1.15743971 -2023.000000
18.91452789 129.90390015 1.17559433 -2026.000000
18.83472443 129.92085266 1.23785973 -2030.000000
18.83939362 129.92410278 1.23787403 -1999.000000
18.82427979 129.90357971 1.24856949 -1965.000000
18.79112244 129.90719604 1.24602938 -2018.000000
18.78507996 129.90454102 1.25577641 -2001.000000
18.86118317 129.85813904 1.24623108 -1982.000000
18.87438965 129.87203979 1.23601818 -2028.000000
18.89060211 129.86048889 1.23850727 -1997.000000
18.84105682 129.86231995 1.26423883 -2002.000000
18.84417725 129.86093140 1.26473570 -1987.000000
18.79624939 129.86260986 1.26117516 -2018.000000
18.87023163 129.80914307 1.25211143 -2019.000000
18.83052826 129.84832764 1.25492716 -2004.000000
18.87243652 129.82365417 1.26090908 -1992.000000
18.87486267 129.82310486 1.26091623 -1985.000000
18.83699799 129.80313110 1.27007771 -1985.000000
18.84168625 129.80639648 1.26032591 -2006.000000
18.53517914 129.65483093 1.24913836 -2018.000000
18.56076813 129.71186829 1.23603868 -2028.000000
18.54949188 129.64843750 1.23062563 -2018.000000
18.60589218 129.56909180 1.25324440 -2028.000000
18.60430908 129.58213806 1.23175621 -2021.000000
18.67218018 129.53890991 1.22169828 -2014.000000
18.66416168 129.52697754 1.22216225 -2019.000000
18.63808823 129.57986450 1.22502041 -2031.000000
18.63465500 129.56265259 1.22647285 -2023.000000
18.67405701 129.54554749 1.23147106 -2011.000000
19.09461594 129.84947205 1.14585114 -1975.000000
19.11474228 129.82388306 1.14004850 -2009.000000
18.94306946 129.86271667 1.20253038 -2026.000000
18.96274567 129.91227722 1.15865088 -2026.000000
18.94284058 129.93724060 1.17470741 -2018.000000
18.95161819 129.91029358 1.17814779 -2026.000000
18.99593353 129.87063599 1.17583275 -2021.000000
18.96363068 129.83692932 1.19672918 -2004.000000
18.97220993 129.83204651 1.17771053 -2016.000000
18.98950195 129.82164001 1.16994762 -2028.000000
18.90393448 129.83526611 1.23219538 -2033.000000
18.98174286 129.79988098 1.22168016 -2028.000000
18.88613510 129.72654724 1.27167845 -2016.000000
18.91674423 129.76849365 1.25956821 -1930.000000
18.90365601 129.80487061 1.24488544 -1999.000000
18.86560822 129.76785278 1.26576328 -1978.000000
18.94934082 129.74801636 1.24452591 -2004.000000
18.94345093 129.79454041 1.23963118 -2014.000000
18.95998764 129.76574707 1.23381758 -2026.000000
18.94346619 129.73617554 1.25524855 -1985.000000
18.92928696 129.75590515 1.26204538 -1959.000000
18.95606613 129.72251892 1.25723743 -1971.000000
18.91793823 129.74012756 1.26298618 -2016.000000
18.90759277 129.71586609 1.26441717 -1999.000000
18.91339493 129.71807861 1.26492262 -2024.000000
18.95555878 129.70347595 1.25967503 -2009.000000
19.03121948 129.81094360 1.18471956 -2028.000000
19.07718277 129.87059021 1.19218922 -2009.000000
19.09043884 129.85453796 1.15511608 -1990.000000
19.08532333 129.86109924 1.16389084 -1985.000000
19.08554077 129.86045837 1.17414522 -2009.000000
19.08502197 129.86174011 1.18390989 -2014.000000
19.05759048 129.79325867 1.16868210 -2028.000000
19.03086472 129.82666016 1.15298223 -2028.000000
19.07459259 129.75726318 1.18386459 -2016.000000
19.08616638 129.74246216 1.17608404 -2026.000000
19.04070663 129.74729919 1.18180895 -2016.000000
19.02270508 129.76336670 1.19884825 -2014.000000
19.07046509 129.70397949 1.19898224 -2002.000000
19.01499939 129.75823975 1.21884394 -2019.000000
18.98381805 129.74488831 1.23779202 -2019.000000
18.99938202 129.68653870 1.24466658 -2021.000000
19.02491379 129.69329834 1.23644209 -2009.000000
18.98111343 129.68882751 1.25291348 -2007.000000
19.00012589 129.66799927 1.25687361 -1995.000000
19.07543945 129.68299866 1.22145557 -2017.000000
19.03813553 129.70610046 1.23599577 -2019.000000
19.03884888 129.63729858 1.24282455 -2014.000000
19.03357315 129.67443848 1.23890781 -2026.000000
19.04492950 129.67950439 1.23943043 -2031.000000
19.02700806 129.63240051 1.25255442 -2007.000000
18.97169495 129.63684082 1.26752615 -2014.000000
19.03890228 129.61958313 1.25454140 -1995.000000
19.02588654 129.61685181 1.26377916 -2017.000000
18.42319489 128.52754211 1.11193323 -1882.000000
17.59191895 129.73678589 1.16137838 -2025.000000
17.14354324 130.04626465 1.18791628 -1995.000000
17.15301895 130.03507996 1.17915392 -1982.000000
17.14370728 130.01086426 1.20158291 -2024.000000
17.09067154 130.02763367 1.22730637 -2024.000000
17.10129166 130.00840759 1.24051952 -1972.000000
17.11874771 129.95779419 1.23568201 -2032.000000
17.11465073 129.99279785 1.23225641 -1938.000000
17.12248611 129.98394775 1.22348928 -1962.000000
17.13974380 129.96392822 1.21621370 -2001.000000
17.22834396 130.02384949 1.14519691 -2016.000000
17.27965164 130.07302856 1.19711447 -2024.000000
17.31002808 130.03802490 1.18206310 -2024.000000
17.31327820 130.03443909 1.17181826 -2024.000000
17.31468201 130.03276062 1.16205597 -2024.000000
17.20343399 129.94236755 1.20272875 -1998.000000
17.26903534 129.90121460 1.19119930 -2011.000000
17.19648743 129.93528748 1.21296120 -2024.000000
17.20459747 129.77018738 1.13581371 -2006.000000
17.18205643 129.79634094 1.14161015 -2001.000000
17.06245422 129.93223572 1.20181942 -2029.000000
17.07211304 129.92149353 1.19354534 -2032.000000
17.06367493 129.93119812 1.17106056 -2024.000000
17.08460236 129.90737915 1.16428375 -2016.000000
16.98203278 129.72796631 1.24549723 -2021.000000
16.97758484 129.75137329 1.23230314 -2022.000000
16.96477509 129.76570129 1.21957207 -2022.000000
16.95016861 129.76420593 1.22880507 -2016.000000
16.98070908 129.72964478 1.22449732 -2009.000000
17.17754364 129.89077759 1.23633575 -2024.000000
17.14260864 129.86044312 1.21523142 -1867.000000
17.14006042 129.86317444 1.22547865 -2017.000000
17.22816467 129.86276245 1.22281170 -2027.000000
17.21068192 129.85240173 1.22178125 -2022.000000
17.22028351 129.84167480 1.23401546 -2012.000000
17.38628006 129.94990540 1.12368441 -2022.000000
17.38259888 129.95367432 1.13343954 -2027.000000
17.44836044 129.87823486 1.11507034 -2030.000000
17.43593597 129.89233398 1.12333632 -2032.000000
17.32214355 129.87637329 1.17719412 -2024.000000
17.31768036 129.90087891 1.15374756 -2004.000000
17.31467438 129.90380859 1.16350365 -2004.000000
17.36740875 129.82452393 1.17585659 -2017.000000
17.35907364 129.87269592 1.16021395 -2024.000000
17.33968353 129.86531067 1.16943312 -2022.000000
17.34016418 129.86511230 1.15918064 -2009.000000
17.37105560 129.85877991 1.15194702 -1996.000000
17.39333344 129.86911011 1.15299177 -2014.000000
17.42897034 129.82800293 1.14967442 -1989.000000
17.40191269 129.83691406 1.15643072 -2032.000000
17.39123535 129.81547546 1.15786076 -2032.000000
17.45979309 129.89007568 1.21862268 -2019.000000
17.25489044 129.71287537 1.13497972 -2014.000000
17.28178787 129.68209839 1.12968445 -2012.000000
17.26389313 129.70297241 1.11596203 -2004.000000
17.28115082 129.68295288 1.10917473 -1984.000000
17.28874588 129.67474365 1.09991932 -1930.000000
17.31210709 129.57650757 1.11169338 -2032.000000
17.31129456 129.64859009 1.09412241 -2017.000000
17.37968445 129.59008789 1.12654591 -1984.000000
17.38779068 129.58059692 1.10752535 -1977.000000
17.37215424 129.59828186 1.11480570 -1946.000000
17.34297943 129.81671143 1.19482660 -1996.000000
17.36470795 129.80430603 1.19781923 -2032.000000
17.29803848 129.81808472 1.22203684 -2019.000000
17.34263611 129.79222107 1.21826029 -1976.000000
17.33777237 129.79812622 1.22752380 -1976.000000
17.20571518 129.62358093 1.16021252 -2002.000000
17.17272949 129.65975952 1.15377092 -2019.000000
17.30365753 129.67646790 1.20445633 -2025.000000
17.29328156 129.69657898 1.24349022 -2020.000000
17.40971375 129.75309753 1.19599342 -2020.000000
17.36690140 129.78886414 1.18952274 -2007.000000
17.40542603 129.78984070 1.16131735 -2030.000000
17.42095566 129.76254272 1.17551994 -2027.000000
17.44489288 129.71218872 1.19267464 -2012.000000
17.37721634 129.69161987 1.24081087 -1921.000000
17.38904190 129.73931885 1.21643829 -2007.000000
17.39408875 129.72314453 1.21840429 -1997.000000
17.38438416 129.73497009 1.22667789 -1984.000000
17.37771606 129.72726440 1.22665691 -2020.000000
17.42510986 129.69801331 1.21312237 -1994.000000
17.41838837 129.68067932 1.22432995 -2025.000000
17.35203934 129.62911987 1.19238663 -1982.000000
17.30900192 129.67036438 1.18494034 -1989.000000
17.31756592 129.66067505 1.16592121 -1989.000000
17.31658554 129.66215515 1.17617273 -1989.000000
17.30689240 129.67289734 1.19469976 -1999.000000
17.35842896 129.62197876 1.20412397 -1865.000000
17.35890961 129.61325073 1.16359615 -2027.000000
17.01126099 129.69511414 1.21970081 -2019.000000
17.03338623 129.68838501 1.22220802 -2024.000000
17.14086533 129.62475586 1.19566298 -2017.000000
17.05484772 129.62898254 1.25009584 -2030.000000
17.09612274 129.55160522 1.26095009 -2027.000000
17.09477615 129.58433533 1.24727869 -2025.000000
17.13882065 129.50360107 1.25862885 -2030.000000
17.15831757 129.60517883 1.18838835 -2025.000000
17.15485382 129.59869385 1.19960737 -2012.000000
17.22707367 129.59956360 1.15392447 -1976.000000
17.23447800 129.58982849 1.15541077 -2030.000000
17.21229553 129.53337097 1.19000483 -2027.000000
17.19942093 129.54768372 1.19778061 -2014.000000
17.14206696 129.53105164 1.24594736 -2020.000000
17.14481354 129.54428101 1.23472738 -2014.000000
17.17259216 129.51310730 1.22943401 -2017.000000
17.20035934 129.46533203 1.24660015 -2022.000000
17.27075195 129.54896545 1.15209484 -2025.000000
17.26932907 129.55174255 1.15160227 -2025.000000
17.24305725 129.41731262 1.24427986 -2025.000000
17.22453690 129.45455933 1.20858431 -2027.000000
17.22126389 129.45812988 1.22859526 -2025.000000
17.26717758 129.40652466 1.22677183 -2012.000000
17.29217529 129.36213684 1.24344158 -2015.000000
17.26121521 129.38507080 1.25897789 -2022.000000
17.26114655 129.36582947 1.26092815 -2025.000000
16.98625565 129.17868042 1.26496649 -2027.000000
16.99114227 129.23002625 1.24008608 -1964.000000
17.03310394 129.18394470 1.23776388 -2012.000000
17.58018494 129.75006104 1.16964483 -2025.000000
17.67683411 129.94320679 1.19046736 -2022.000000
17.60816193 129.98838806 1.22200680 -2019.000000
17.68634796 129.91323853 1.21490574 -2025.000000
17.66061020 129.91564941 1.23289680 -2025.000000
17.73197937 129.92872620 1.15498590 -2022.000000
17.75361252 129.90887451 1.14869928 -2027.000000
17.71030426 129.93414307 1.16322136 -2017.000000
17.74026489 129.88163757 1.17062902 -2027.000000
17.78420258 129.87322998 1.14439058 -2027.000000
17.77954102 129.91062927 1.15073013 -2022.000000
17.77827454 129.90423584 1.15121317 -2027.000000
17.77249527 129.88061523 1.15265799 -2015.000000
17.74826050 129.88984680 1.16040039 -2015.000000
17.76306915 129.85485840 1.16483307 -2022.000000
17.78092575 129.85168457 1.15658522 -2027.000000
17.73823166 129.80484009 1.26045609 -2020.000000
17.75901794 129.81161499 1.23073387 -2027.000000
17.60710144 129.71928406 1.15409613 -2007.000000
17.39713287 129.56941223 1.14026737 -2030.000000
17.41423798 129.55003357 1.10222912 -2015.000000
17.50901031 129.71293640 1.15673304 -2027.000000
17.50586700 129.70362854 1.16795206 -2002.000000
17.49817657 129.72579956 1.16500282 -2015.000000
17.53637695 129.64875793 1.17584848 -2002.000000
17.55093765 129.65133667 1.16661549 -2015.000000
17.45111465 129.66764832 1.20782471 -2025.000000
17.56741333 129.61289978 1.17154121 -1990.000000
17.63103104 129.69145203 1.14879274 -2027.000000
17.61525726 129.57756042 1.16874981 -2022.000000
17.62501907 129.50518799 1.19708967 -2020.000000
17.60270691 129.56282043 1.18970680 -1990.000000
17.63154221 129.53869629 1.17367649 -2003.000000
17.62711334 129.53479004 1.17415047 -1990.000000
17.62090302 129.54130554 1.18292189 -1962.000000
17.61161804 129.54331970 1.19217157 -2030.000000
17.60365295 129.52920532 1.20337725 -2015.000000
17.58570099 129.55009460 1.20967340 -2002.000000
17.81849289 129.83271790 1.14106941 -2027.000000
18.01987457 129.76869202 1.14361477 -2030.000000
17.80900192 129.81877136 1.15178251 -2030.000000
17.84606171 129.85618591 1.16117477 -2017.000000
17.84180450 129.88485718 1.15823603 -1995.000000
17.79963684 129.84919739 1.14785147 -2020.000000
17.83715057 129.83505249 1.15284443 -2015.000000
17.84488297 129.83319092 1.15335512 -2022.000000
17.79251862 129.82025146 1.16052246 -2030.000000
17.89913559 129.83615112 1.16816568 -1905.000000
17.92069244 129.84841919 1.16871977 -2000.000000
17.91247177 129.83605957 1.16869402 -2010.000000
17.90508270 129.80995178 1.16085672 -1987.000000
17.79079437 129.77384949 1.22642946 -2025.000000
17.80520630 129.74647522 1.25088263 -2025.000000
17.76950836 129.76835632 1.25615025 -2032.000000
17.83511734 129.71168518 1.24657202 -2015.000000
17.93798065 129.76042175 1.16827106 -2020.000000
17.95320129 129.81462097 1.15416431 -2012.000000
17.91827393 129.81312561 1.16138411 -1947.000000
17.97314835 129.78639221 1.16886806 -1998.000000
17.94218445 129.74354553 1.17023468 -2005.000000
17.90339661 129.75720215 1.15547323 -2010.000000
17.93181229 129.73109436 1.16043615 -2018.000000
18.00038147 129.75869751 1.15332079 -2005.000000
18.01435471 129.73742676 1.16703081 -1988.000000
17.98220825 129.75289917 1.17279625 -2000.000000
17.94572830 129.70719910 1.15363836 -2005.000000
18.00223160 129.71397400 1.16796875 -2005.000000
17.99847412 129.69960022 1.16893148 -2020.000000
17.88745880 129.63041687 1.26869011 -2028.000000
17.86965561 129.67053223 1.24276304 -2025.000000
17.91909790 129.61251831 1.24241495 -2030.000000
17.94905472 129.58843994 1.21662140 -2010.000000
17.82790375 129.46308899 1.11614513 -2018.000000
17.78391647 129.52067566 1.19854212 -2015.000000
17.64402771 129.50578308 1.18835735 -2025.000000
17.68163300 129.48092651 1.17332840 -2010.000000
17.70916367 129.43969727 1.17975330 -2018.000000
17.80323792 129.49810791 1.19224834 -1991.000000
17.75811005 129.38298035 1.17940331 -2025.000000
17.39642334 129.46380615 1.11974239 -2025.000000
17.38330078 129.47877502 1.12702990 -1987.000000
17.43809891 129.43388367 1.12621069 -2025.000000
17.46749878 129.48977661 1.10237932 -2027.000000
17.50383759 129.45634460 1.11908436 -1920.000000
17.49162292 129.46981812 1.13760519 -1927.000000
17.51052856 129.44854736 1.11031437 -1822.000000
17.52163315 129.43612671 1.08153772 -1965.000000
17.49555206 129.46539307 1.12785006 -1935.000000
17.47882843 129.48457336 1.18639708 -1947.000000
17.48301697 129.47950745 1.17664385 -1812.000000
17.48489761 129.47761536 1.15662956 -1890.000000
17.48720169 129.47552490 1.14686966 -1925.000000
17.48418045 129.47845459 1.16688108 -1805.000000
17.47560120 129.48815918 1.19566584 -2002.000000
17.32341766 129.32673645 1.23913574 -2015.000000
17.30276489 129.33810425 1.25665426 -2017.000000
17.36404419 129.28125000 1.23680878 -2010.000000
17.52866364 129.44515991 1.16359091 -2003.000000
17.55157852 129.41882324 1.17830372 -1995.000000
17.36383438 129.26901245 1.25829172 -2013.000000
17.42192078 129.20393372 1.24869013 -2020.000000
17.41768646 129.18975830 1.25990677 -2015.000000
